ply
format ascii 1.0
element vertex 1307
property float x
property float y
property float z
property uchar red
property uchar green
property uchar blue
end_header
-0.076732 1.358635 0.703899 42 62 112
-0.103576 1.305357 0.718985 0 0 0
-0.288607 1.029647 0.575707 73 62 56
-0.157516 0.883977 0.582454 232 223 233
-0.258226 0.970941 0.479246 61 48 54
-0.218529 1.075703 0.709240 54 46 47
-0.147988 0.896322 0.462700 36 40 47
-0.265823 1.191226 0.628331 35 32 25
0.078057 1.317718 0.374901 59 71 82
-0.141256 0.894147 0.625094 146 135 128
-0.116346 0.804556 0.541585 6 9 13
-0.011237 1.310767 0.528470 51 63 82
-0.163277 1.131714 0.434937 8 5 7
-0.142024 0.908249 0.544815 28 36 38
-0.001753 1.060082 0.614263 107 88 77
-0.115011 0.880547 0.623438 237 221 220
-0.244769 0.946339 0.463023 6 9 12
-0.268310 1.276376 0.474862 51 52 54
-0.198931 1.069835 0.723311 29 19 17
-0.114056 1.269899 0.671562 43 49 60
-0.272678 1.039815 0.509436 0 0 0
-0.134098 1.067029 0.725232 48 44 35
-0.007341 1.034265 0.596834 114 112 108
-0.194136 1.271905 0.671708 26 44 79
-0.052493 1.270964 0.617276 62 76 99
-0.233358 0.931450 0.478896 172 168 166
-0.203339 0.904139 0.487501 200 202 199
-0.093775 0.915391 0.470935 230 219 220
-0.079491 0.899234 0.558741 217 209 209
-0.134959 0.914017 0.468815 253 252 244
-0.174542 0.897661 0.476743 203 209 214
-0.015765 0.963079 0.553076 0 0 0
0.006755 0.996274 0.515135 7 10 14
-0.287628 1.040885 0.503159 103 81 75
-0.190850 0.925671 0.435226 7 10 14
-0.015702 1.018808 0.601320 87 100 129
-0.059875 0.902948 0.539609 7 10 14
-0.119545 0.902373 0.614552 209 198 195
0.087301 1.170784 0.328633 75 93 119
-0.166661 0.901263 0.613486 205 197 186
0.094196 1.170567 0.325030 89 113 156
-0.152490 0.923727 0.643647 87 69 59
0.079469 1.161663 0.333765 7 10 14
-0.181807 1.383281 0.678371 6 9 12
-0.295285 1.138002 0.584734 9 14 15
-0.012896 0.947715 0.543770 155 143 144
-0.289674 1.143376 0.602366 63 45 39
-0.052245 0.909887 0.514033 108 109 101
-0.194726 0.910615 0.563663 188 169 166
-0.216738 0.953963 0.653833 181 162 168
-0.259728 1.082011 0.674953 0 0 0
-0.160807 1.067945 0.729731 40 34 24
-0.060507 1.372154 0.707073 33 54 93
-0.127274 0.912130 0.596154 0 0 0
-0.075697 0.921172 0.454187 0 0 0
-0.192259 1.292208 0.327345 18 19 21
-0.278186 1.062353 0.659487 48 40 33
-0.021720 1.050071 0.603271 89 75 66
-0.199343 0.989998 0.693784 65 45 44
-0.242481 1.174632 0.612638 4 1 2
-0.203041 0.933296 0.438721 23 25 34
-0.166240 0.891475 0.602453 253 253 253
-0.222575 1.251018 0.616078 5 6 17
-0.127123 0.929223 0.507125 34 33 36
-0.129628 0.872455 0.615184 201 192 201
-0.013154 0.949707 0.587568 113 97 81
-0.096705 1.306184 0.657633 48 55 67
-0.079916 1.400364 0.682378 0 0 0
-0.120444 0.920813 0.597720 0 0 0
0.068035 1.312921 0.380276 94 111 156
-0.162177 1.370523 0.712994 20 24 29
-0.103168 1.034042 0.714380 44 37 33
-0.067479 0.919769 0.489820 147 136 131
-0.021585 1.347298 0.543009 40 52 69
-0.185072 0.883527 0.599126 168 168 168
-0.009449 1.109958 0.641093 6 10 4
-0.121174 1.363562 0.702883 0 0 0
-0.287943 1.223200 0.595513 12 16 25
-0.101093 1.029748 0.725360 0 0 0
-0.259883 0.942744 0.491429 53 49 36
-0.115258 1.368165 0.492387 9 16 29
-0.228470 1.036605 0.782409 5 6 21
-0.146150 0.897903 0.467552 141 135 134
-0.087484 0.898893 0.550391 253 253 253
-0.232412 0.897552 0.567795 115 112 104
-0.199518 0.912858 0.466904 210 212 220
-0.213223 0.968082 0.656858 192 172 160
-0.220772 0.929179 0.620117 19 13 12
-0.099242 1.040688 0.713305 22 21 19
0.105142 1.298388 0.354493 54 68 87
-0.042760 0.919403 0.530744 109 123 134
-0.281447 1.058023 0.652164 26 21 28
0.002749 1.421288 0.480692 67 87 109
-0.280863 1.053272 0.661847 46 39 35
-0.026001 0.922242 0.526535 0 0 0
-0.086657 1.410840 0.710236 0 2 2
-0.303977 1.082243 0.534727 8 12 17
-0.268693 1.019072 0.453783 5 9 13
-0.263560 1.141911 0.660557 50 40 35
-0.160896 0.897131 0.489257 18 26 26
-0.101170 0.903190 0.623975 213 196 186
-0.114877 0.901339 0.617853 222 202 192
-0.292596 0.961832 0.567338 7 11 15
-0.178901 0.902469 0.461216 61 65 71
-0.150233 0.892472 0.625763 177 158 154
-0.278117 1.272280 0.504413 7 13 17
-0.111824 1.236598 0.659249 33 46 79
-0.176594 0.910967 0.447575 6 9 12
-0.162492 0.986139 0.667162 177 164 147
-0.179822 0.964286 0.675365 248 231 228
-0.016034 0.908053 0.579775 161 131 116
-0.244488 1.050209 0.721456 7 10 14
-0.140402 1.041111 0.743844 0 0 0
-0.139680 0.899875 0.475491 213 195 199
-0.277220 1.032883 0.486703 12 15 18
-0.270315 0.934898 0.535402 48 42 35
-0.299605 1.150911 0.615495 46 36 32
-0.089993 1.306386 0.703820 67 61 56
-0.008989 1.039443 0.593129 195 183 175
-0.267692 0.983402 0.660373 126 109 99
-0.162195 1.250070 0.634829 33 46 79
-0.235917 0.929332 0.611233 54 44 30
-0.198196 1.345447 0.721685 0 0 0
-0.287647 1.149617 0.566641 0 0 0
-0.027895 1.038366 0.619018 76 72 63
-0.192990 0.905887 0.528831 253 244 252
0.010836 1.124819 0.522033 109 86 77
0.033334 1.164035 0.335016 83 65 69
-0.042179 1.456855 0.580569 0 0 0
-0.010766 1.095900 0.603124 79 95 118
-0.201507 0.901556 0.472263 9 12 16
0.033496 1.298777 0.391413 81 94 123
-0.011300 1.217846 0.535232 0 0 0
-0.178027 1.280411 0.651880 30 43 74
-0.121309 0.885617 0.592327 219 207 209
-0.258243 0.958580 0.476876 29 23 22
-0.087932 1.390436 0.703569 33 56 95
-0.186625 0.849281 0.635927 0 0 0
-0.178178 0.891153 0.523674 231 233 229
-0.087388 0.536519 0.743825 0 0 0
-0.270784 0.916502 0.567548 7 10 14
-0.261419 0.928227 0.517248 33 30 34
-0.195157 0.884056 0.600486 32 35 30
-0.126089 0.905980 0.548895 253 253 253
0.012424 1.173073 0.495029 188 252 253
-0.143806 0.896932 0.473265 175 173 166
-0.089468 1.148359 0.825744 3 1 4
-0.273146 1.219913 0.613319 0 0 0
-0.118062 0.887648 0.494936 35 46 42
-0.283020 1.058688 0.645687 37 31 23
0.072345 1.165482 0.342192 108 131 171
-0.147844 1.071661 0.727701 64 53 38
-0.167049 1.068517 0.736758 62 52 42
0.085203 1.321597 0.364020 83 97 130
-0.195438 1.409755 0.726758 6 9 12
-0.148542 0.925163 0.641099 62 52 48
-0.299083 1.147962 0.624024 48 39 32
-0.026027 0.933809 0.506916 7 9 12
-0.123394 1.237960 0.657763 9 12 26
-0.109981 0.900587 0.621620 196 172 167
0.032618 1.281151 0.431469 12 15 13
0.000694 1.202258 0.378552 7 10 14
-0.264592 1.218493 0.615749 37 35 42
-0.286590 0.994545 0.536749 9 12 16
-0.010567 1.095029 0.431493 85 74 70
0.068884 1.254479 0.355974 98 113 144
-0.077239 1.372962 0.636507 7 10 15
0.015644 1.246928 0.383698 213 253 253
-0.147799 0.885298 0.468379 25 29 34
-0.244800 1.188232 0.600697 31 27 29
-0.103522 0.891983 0.628628 233 219 206
0.027075 1.303754 0.387412 39 56 61
-0.148924 1.041841 0.744546 42 36 30
-0.151546 0.902006 0.618095 185 166 160
-0.081206 0.896706 0.496004 88 86 77
0.100454 1.300135 0.364791 74 100 133
-0.260158 1.189075 0.622550 33 28 25
-0.132776 0.895568 0.620984 237 236 244
-0.157036 0.959934 0.674687 177 161 139
-0.177157 0.952606 0.675003 233 236 253
-0.102579 0.997689 0.689918 157 135 122
-0.114702 0.971270 0.670192 158 141 129
0.041146 1.358358 0.511306 9 13 11
-0.107685 0.895662 0.472768 0 0 0
-0.269528 0.947733 0.525082 34 29 29
-0.268106 0.947809 0.506985 0 0 0
-0.312742 1.163652 0.619559 13 16 27
0.109006 1.287437 0.356929 47 60 82
-0.148651 1.340842 0.734018 68 83 97
-0.315348 1.146480 0.455708 0 0 0
-0.162876 0.885269 0.512432 34 41 48
-0.011112 0.999106 0.539292 71 64 66
-0.166164 0.954847 0.698020 208 189 178
-0.282365 1.016299 0.565700 73 62 54
-0.122549 1.226180 0.666463 12 22 32
-0.002287 1.041947 0.580498 18 28 29
-0.104491 0.896952 0.475745 9 11 4
0.017818 1.229692 0.372618 60 78 106
-0.000514 1.070179 0.610488 83 66 60
-0.160661 0.922456 0.638946 100 85 66
-0.140210 1.367406 0.724438 93 115 133
-0.042651 0.913780 0.569815 203 189 186
-0.090917 1.287936 0.692980 110 98 91
-0.302537 1.143191 0.623310 59 50 48
-0.015617 0.806895 0.724663 151 138 127
-0.035955 0.930151 0.559433 0 0 0
-0.174835 0.905190 0.464411 191 197 186
-0.228175 1.246471 0.615926 4 6 7
-0.104854 1.057829 0.692380 94 81 66
-0.017601 0.946954 0.559031 145 148 146
-0.204332 0.911594 0.459746 16 19 25
0.018418 1.420560 0.765948 18 25 33
-0.228067 0.877846 0.536386 8 12 17
-0.141401 1.373495 0.710386 68 74 91
-0.039543 0.924814 0.568039 203 192 185
-0.213850 0.919320 0.434109 10 15 16
-0.051782 0.914688 0.568939 212 207 197
-0.086346 1.352681 0.605798 42 49 60
-0.022465 1.031378 0.599787 131 93 78
-0.296206 1.182571 0.614449 12 12 17
-0.088376 1.208424 0.596118 41 40 42
-0.091787 0.923334 0.577583 245 253 253
-0.294321 0.956759 0.552058 9 12 16
-0.161380 1.257908 0.634615 30 47 79
-0.223210 1.352408 0.694036 0 0 0
-0.237196 1.366903 0.386974 0 0 0
-0.232122 0.887875 0.577231 242 232 227
0.045796 1.306008 0.388481 53 64 81
-0.035317 0.943119 0.607683 18 18 17
-0.095859 1.386267 0.728785 7 10 14
-0.282897 1.039165 0.493916 0 0 0
0.081204 1.318258 0.371254 87 107 134
-0.110739 1.041378 0.728309 79 69 59
-0.206964 1.089815 0.689960 32 24 22
-0.182876 0.900743 0.467522 9 7 8
0.123435 1.084217 0.504765 8 12 21
-0.135344 0.896093 0.481341 180 180 180
-0.072967 1.346153 0.682274 36 58 102
-0.287412 1.039272 0.491494 153 142 134
-0.118698 1.220667 0.654152 32 45 74
-0.243567 1.244072 0.638674 37 41 52
-0.236939 1.387255 0.657094 29 34 40
-0.064726 1.436070 0.640255 6 7 10
-0.008441 0.993228 0.538432 0 0 0
-0.253095 0.976477 0.641915 130 116 110
0.007275 1.037183 0.588056 23 30 38
0.051485 1.310376 0.388171 56 65 81
-0.119566 1.062977 0.724168 80 68 66
-0.093737 0.900701 0.481506 253 250 253
-0.035430 0.924291 0.555596 233 230 219
-0.023440 1.123736 0.605952 51 49 54
-0.121503 0.874636 0.524782 7 11 16
0.071992 1.357727 0.350325 0 0 0
-0.144281 1.069140 0.724610 29 23 19
0.051880 1.483613 0.540318 39 47 54
0.201970 1.459371 0.638676 18 24 31
-0.019410 1.181445 0.584722 6 9 17
-0.193143 1.408943 0.731534 0 0 0
-0.158315 1.234452 0.659616 34 49 80
-0.029709 0.970717 0.467194 6 6 6
0.042564 1.266858 0.384753 93 126 154
-0.122624 1.050177 0.439481 0 0 0
-0.102889 1.312810 0.728681 0 0 0
-0.064954 0.910452 0.519451 19 29 35
-0.066709 1.441681 0.605278 9 16 17
-0.218544 1.390643 0.737353 1 2 4
-0.234282 0.902258 0.503377 26 30 28
-0.080013 1.310789 0.693744 43 36 35
-0.002595 1.318945 0.341767 0 0 0
0.009886 1.249192 0.385610 36 43 54
-0.168786 1.323784 0.768133 0 0 0
-0.276774 1.138913 0.624925 39 31 29
-0.247193 1.387910 0.658243 40 51 57
0.020213 1.269174 0.389689 31 34 46
-0.278551 0.974935 0.551317 12 15 19
-0.083246 1.360369 0.701423 37 64 110
-0.195720 1.257684 0.684975 13 19 33
0.033294 1.284226 0.388831 23 28 35
-0.170386 0.893346 0.469251 18 18 21
-0.023043 1.318356 0.313314 4 7 10
-1.418569 3.029298 -0.842897 20 22 35
0.024916 1.258545 0.386663 20 21 27
0.039799 1.285407 0.385728 60 72 89
0.051097 1.303669 0.387178 100 123 150
-0.133479 1.378929 0.751463 94 122 144
-0.093163 1.247267 0.655601 23 36 54
-0.121467 1.249092 0.697418 0 0 0
-0.026216 1.039973 0.601973 128 99 82
-0.175491 0.899519 0.603347 161 151 136
-0.284051 0.943177 0.521507 40 37 30
-0.126928 0.885879 0.639119 234 229 245
-0.029487 1.345706 0.537760 61 77 107
-0.163514 1.338662 0.737591 0 0 0
-0.005850 1.013941 0.585889 10 16 23
-0.052811 1.348956 0.329734 0 0 0
-0.030554 0.934981 0.600835 0 0 0
-0.088630 1.252588 0.673722 36 38 57
-0.181734 1.373240 0.676730 6 8 12
-0.074637 1.286365 0.655379 19 23 36
-0.295460 1.070932 0.488901 68 52 43
-0.281519 1.184672 0.537845 0 0 0
-0.058496 0.865572 0.663647 8 12 17
-0.220665 0.894569 0.579210 190 173 165
-0.236545 0.906153 0.454102 0 0 0
-0.026078 0.937869 0.579999 70 63 63
-0.058541 1.365737 0.673649 34 39 49
-0.292064 1.063842 0.599171 53 45 34
-0.173460 0.994854 0.720196 0 0 0
-0.104536 1.036984 0.715033 85 74 69
-0.090130 1.268260 0.592587 55 70 85
-0.093024 0.911431 0.614335 172 162 151
-0.185199 0.963762 0.685972 210 199 195
0.017947 1.246974 0.385922 102 125 166
-0.285075 1.045388 0.655385 35 25 29
-0.162412 0.894475 0.474514 30 35 45
-0.275814 0.934845 0.547434 8 12 17
-0.084018 0.715220 0.652991 0 0 0
-0.144129 0.924615 0.646290 9 12 16
-0.084005 0.897897 0.490037 32 39 41
-0.184749 1.345658 0.729985 4 8 17
-0.297174 1.153431 0.621162 50 39 24
-0.121645 0.879426 0.607567 239 241 237
-0.200792 0.994232 0.694121 69 47 41
-0.262622 1.189796 0.615273 55 46 42
-0.062189 1.360445 0.681466 42 77 145
-0.037999 0.909897 0.495853 0 0 0
-0.133102 1.313198 0.711887 0 0 0
-0.250749 1.167654 0.613934 6 14 20
-0.089750 1.270770 0.669908 96 85 77
-0.033091 0.912162 0.485125 7 10 14
-0.074747 0.899810 0.513784 230 228 222
-0.237990 0.887758 0.559247 5 7 10
-0.099499 1.245542 0.675947 34 57 90
-0.220641 0.964704 0.680896 115 108 84
-0.094047 1.397030 0.671504 36 68 122
-0.254793 0.910215 0.565665 30 24 26
-0.125183 0.891529 0.591556 236 218 228
-0.084757 0.898100 0.485790 0 0 0
-0.294364 1.158498 0.485965 8 13 19
-0.105362 0.897528 0.487468 188 160 148
-0.070828 0.920332 0.604795 180 166 153
-0.211001 0.933444 0.602971 44 37 28
-0.216993 1.189017 0.618851 8 10 15
-0.240256 1.375155 0.689817 54 63 78
-0.292557 1.151212 0.567274 0 0 0
-0.110287 1.284359 0.636925 11 14 18
-0.299997 1.096122 0.524506 6 13 22
-0.093956 0.882430 0.517549 8 12 17
-0.154897 0.971986 0.531923 252 253 251
-0.075386 0.911175 0.470855 0 0 0
0.114889 1.454622 0.647551 5 14 34
0.022634 1.076469 0.513358 0 0 0
-0.167278 0.959932 0.679437 228 240 252
-0.171864 0.971706 0.649796 211 215 241
-0.159832 0.885625 0.562444 206 198 197
-0.106571 1.441001 0.625030 33 50 89
-0.222636 1.236596 0.628788 4 11 18
0.085893 1.309345 0.373466 90 114 159
-0.256133 0.911884 0.520117 9 12 16
-0.230707 1.069823 0.710100 0 0 0
-0.031939 1.025398 0.612035 73 59 60
-0.205256 0.924451 0.454272 25 26 25
-0.037168 1.271707 0.451076 0 0 0
-0.497225 1.576469 0.460277 0 0 0
-0.086301 1.402518 0.720332 4 8 4
-0.079487 1.323936 0.679884 43 42 49
-0.087093 1.394334 0.720264 7 10 15
-0.235973 1.413765 -0.030044 0 0 0
-0.031007 1.329891 0.560053 0 0 0
-0.261762 1.070021 0.682062 8 12 17
-0.038662 1.147723 0.589792 36 26 19
-0.310936 1.113637 0.783618 0 0 0
-0.061547 1.379796 0.656199 0 0 0
-0.031122 0.920492 0.526270 7 11 15
-0.147098 0.954311 0.681647 158 142 129
0.001009 1.091008 0.593186 74 92 129
-0.169060 0.937047 0.703080 163 148 139
-0.138096 0.898171 0.624073 0 0 0
-0.194303 0.893992 0.493477 32 41 48
-0.158511 1.383032 0.695401 20 24 29
-0.094478 1.298378 0.702382 60 49 43
-0.039624 1.427689 0.607799 2 6 9
-0.154595 0.893829 0.636866 84 75 68
-0.264132 1.223175 0.601400 52 55 52
-0.206458 0.819657 0.836508 140 138 140
-0.162515 0.878766 0.554367 197 195 181
-0.184255 0.948805 0.668820 203 198 207
-0.191821 1.271537 0.655127 26 39 58
-0.186244 0.880734 0.504407 7 10 14
-0.186868 1.356976 0.711042 0 0 0
-0.123673 0.899736 0.618310 0 0 0
0.014446 1.264433 0.426106 0 0 0
-0.132987 0.882165 0.585322 179 180 182
-0.081245 0.898984 0.609768 245 248 253
-0.048136 1.382140 0.691463 8 10 15
0.073300 1.304177 0.344050 98 116 143
-0.138047 0.891416 0.476196 9 12 16
-0.148485 0.990281 0.544388 100 91 83
-0.022910 0.939188 0.579609 145 142 135
0.075924 1.163679 0.399063 0 0 0
-0.142418 0.891853 0.505379 0 0 0
-0.120046 1.049447 0.723893 76 62 54
-0.125122 0.883985 0.603122 233 226 222
0.034979 1.292501 0.386655 34 38 55
-0.215766 1.211101 0.588538 20 29 35
-0.074811 0.898806 0.490765 5 7 10
-0.108919 0.890734 0.602888 237 220 223
-0.139878 1.370606 0.711468 65 69 85
-0.097120 0.880888 0.620214 253 253 253
0.095611 1.314345 0.348006 0 0 0
-0.187507 0.888037 0.529060 45 42 60
0.069655 1.255087 0.362590 96 111 140
-0.261220 0.917220 0.557365 42 37 35
-0.052247 1.356715 0.705885 49 88 158
-0.098432 1.293606 0.672937 0 0 0
-0.223745 0.984365 0.713753 101 84 83
-0.022017 1.014025 0.577123 98 63 51
-0.005268 1.030965 0.588615 9 9 14
-0.137756 1.072389 0.718263 34 29 23
-0.080710 1.196362 0.731443 0 0 0
-0.287958 0.986473 0.483457 0 0 0
-0.202826 1.311676 0.591173 0 0 0
-0.049540 1.009253 0.430188 35 36 38
0.085287 1.211907 0.363230 98 115 141
-0.007903 1.074500 0.604356 99 78 66
-0.174065 0.890758 0.573969 170 161 167
-0.241185 0.940398 0.607296 41 33 34
-0.075672 1.345805 0.675050 66 108 186
0.063337 1.167767 0.346665 120 151 188
-0.013300 1.023115 0.490915 9 13 11
-0.212131 1.375654 0.693290 7 9 12
0.032384 1.280270 0.386251 31 31 33
-0.256364 1.397913 0.637155 0 0 0
0.097785 1.172283 0.333957 106 126 157
-0.009427 1.411685 0.636108 4 1 3
-0.145303 1.370720 0.719354 87 101 126
-0.085840 1.007880 0.988446 7 9 12
-0.031477 1.236717 0.502884 8 10 9
-0.025930 1.328347 0.555768 0 0 0
-0.184339 1.365439 0.679453 5 8 8
-0.184714 1.352363 0.327467 150 189 250
-0.038465 0.916180 0.521809 0 0 0
-0.005917 1.500134 0.484367 2 3 3
-0.114804 1.238304 0.678446 15 21 48
-0.290006 0.990974 0.588515 6 9 12
-0.219492 0.913446 0.454918 7 10 14
-0.009450 1.124383 0.542298 6 10 11
-0.079500 1.421993 0.628182 9 12 16
-0.289807 1.029346 0.526964 0 0 0
0.012536 1.057063 0.491049 0 0 0
-0.038678 1.124973 0.618289 65 54 54
-0.310122 1.139895 0.611850 10 13 17
-0.260986 1.064608 0.691651 21 17 16
-0.178973 0.906148 0.459558 101 99 92
-0.099964 0.895969 0.627545 173 159 160
-0.167721 0.946697 0.692684 206 200 213
-0.015131 1.488584 0.474495 1 1 2
-0.161401 0.883306 0.505818 28 38 42
-0.053389 0.906854 0.538568 109 117 116
-0.007269 1.066568 0.611058 110 85 73
0.017240 1.417232 0.369173 0 0 0
-0.151179 0.819689 1.129914 7 10 14
-0.295630 0.971410 0.565262 6 9 12
-0.204788 0.900410 0.569029 225 211 211
-0.116113 0.890360 0.608352 253 253 253
-0.081554 1.336055 0.647909 40 45 60
-0.125741 0.914247 0.440580 0 0 0
-0.063086 1.419284 0.645220 7 10 14
-0.218335 0.889198 0.542070 46 54 61
0.082251 1.316997 0.368505 91 116 149
-0.108353 0.898165 0.484117 132 117 115
-0.117139 1.356170 0.697855 7 12 25
-0.069628 1.369320 0.698865 17 29 52
-0.082565 1.329438 0.692921 10 18 31
-0.064972 1.403669 0.696730 18 27 42
-0.093506 1.294318 0.672721 117 99 95
-0.029510 1.173610 0.510168 29 37 48
-0.060282 1.366228 0.700431 55 88 166
-0.062440 0.904411 0.550760 16 25 33
-0.029631 0.947002 0.590470 10 6 10
-0.010687 0.972233 0.543720 68 59 55
-0.165599 0.970187 0.688911 144 136 135
-0.022961 1.031835 0.595056 87 72 63
-0.129500 1.266827 0.600337 26 28 42
0.001852 1.045194 0.551015 93 80 73
-0.133957 0.899049 0.476371 225 207 197
-0.195512 0.884478 0.494514 9 11 16
-0.146706 0.901506 0.471876 187 151 125
-0.171271 0.881706 0.616873 194 178 178
0.081145 1.311590 0.373896 72 84 112
-0.048906 0.913253 0.503781 6 9 12
-0.080687 1.357037 0.666130 0 0 0
-0.206107 0.894142 0.502737 38 42 48
-0.161247 0.948825 0.443668 231 209 184
-0.135202 1.348705 0.711891 9 21 56
-0.061008 0.904065 0.549010 27 33 38
-0.048481 0.937897 0.582781 0 0 0
-0.032820 0.936934 0.580846 175 159 153
-0.022660 0.959707 0.583672 95 82 62
-0.149190 1.347726 0.733745 0 0 0
-0.053962 1.213779 0.541738 3 2 5
-0.025330 0.938007 0.573817 158 135 119
-0.146437 0.893994 0.614945 155 138 133
-0.256698 0.998912 0.650966 84 72 64
-0.081208 1.209008 0.503156 2 6 4
-0.027214 1.177764 0.606074 0 0 0
-0.115781 1.354263 0.691043 6 17 41
-0.211765 1.195646 0.623414 6 9 12
-0.260877 1.004057 0.649759 109 98 86
-0.062790 1.395791 0.698787 22 35 56
0.010249 1.411297 0.781014 20 25 35
-0.172772 1.304732 0.293188 0 0 0
-0.202707 0.954028 0.673924 170 156 153
0.028410 1.293052 0.394585 29 36 48
-0.187482 0.895319 0.488501 40 42 55
-0.135257 1.333361 0.726169 8 17 39
-0.112259 0.897706 0.617016 0 0 0
-0.255367 1.001257 0.602079 165 164 156
0.058700 1.307231 0.372583 152 192 253
-0.092723 1.343046 0.692704 0 0 0
-0.026270 1.441689 0.586633 6 7 9
-0.192218 0.890464 0.475175 0 0 0
-0.061300 1.222504 0.423050 53 75 117
0.083912 1.223444 0.344619 96 114 150
-0.290694 1.001908 0.546756 236 230 222
-0.174466 1.004627 0.710455 115 103 79
-0.188831 1.392431 0.724928 6 9 12
-0.094053 0.906184 0.616932 191 182 177
0.058538 1.167025 0.362336 114 139 179
0.030780 1.058077 0.556000 6 13 17
0.078266 1.245587 0.311666 97 111 143
-0.148814 1.334306 0.736261 5 9 12
-0.016478 0.949772 0.568083 8 9 10
0.014869 1.277065 0.392776 10 16 19
-0.190929 1.080538 0.701427 0 0 0
0.063194 1.315403 0.385102 82 96 113
0.063074 1.312752 0.382286 113 142 182
-0.238085 0.899140 0.564733 179 169 159
-0.014474 1.086291 0.615993 46 36 30
-0.024573 0.958463 0.583698 96 81 66
-0.007852 1.048620 0.595191 119 92 79
-0.022500 0.942874 0.567149 157 156 154
-0.350119 1.272438 0.052494 189 175 166
-0.030625 1.081542 0.471487 33 31 31
-0.147673 0.905780 0.456252 21 21 20
-0.164099 1.374329 0.720489 59 65 73
-0.213422 0.912049 0.469777 6 8 11
-0.034168 0.925897 0.563887 190 165 155
-0.014969 1.031411 0.523422 82 73 58
-0.164954 0.954248 0.664166 101 90 88
-0.273498 0.963068 0.521191 35 35 31
-0.220407 0.886853 0.577166 34 40 47
-0.110888 0.944384 0.656129 0 0 0
-0.295682 1.157879 0.616759 52 40 34
-0.205673 0.930821 0.618362 0 0 0
-0.043389 0.922397 0.573667 218 203 185
-0.119118 1.260010 0.679747 15 14 23
-0.256135 1.004342 0.611274 118 109 109
-0.105932 0.897954 0.500032 253 253 247
-0.101652 1.293798 0.654269 0 0 0
-0.080433 0.904429 0.515505 253 253 253
-0.133867 0.984543 0.692187 164 160 160
-0.230650 1.362423 0.700107 0 0 0
-0.284086 1.095717 0.159965 179 161 151
-0.122358 0.887925 0.508559 26 38 42
-0.103364 0.949465 0.713529 0 0 0
-0.027609 0.940957 0.586137 92 96 102
-0.237241 0.954976 0.628514 82 77 73
-0.160596 0.961257 0.676738 164 150 142
-0.057824 0.909711 0.603565 217 218 209
-0.078011 0.899826 0.592676 252 253 253
-0.031889 0.940317 0.580172 169 151 150
-0.262538 1.230914 0.674209 6 13 17
-0.220251 0.872216 0.549078 8 11 16
-0.082106 1.305180 0.660641 78 77 90
-0.123294 1.346302 0.722479 64 75 92
-0.098477 1.438289 0.616245 26 46 85
-0.087898 1.311164 0.710986 11 11 15
-0.024736 0.975896 0.572830 94 66 46
-0.078387 0.897046 0.604351 0 0 0
-0.233671 0.887794 0.561231 41 41 45
0.038920 1.305829 0.393751 0 0 0
-0.067571 1.343605 0.675363 47 78 147
-0.221071 1.375978 0.671374 0 0 0
-0.191833 1.394374 0.728461 7 10 14
-0.051788 1.367012 0.676314 43 76 147
0.042472 1.311939 0.393812 0 0 0
-0.085815 1.338950 0.685601 23 34 58
0.038533 1.255864 0.380831 106 131 166
-0.009310 1.070235 0.541951 110 91 81
-0.066035 0.909399 0.493243 205 206 203
-0.139047 0.887797 0.528835 56 60 56
-0.117886 0.903355 0.614505 200 178 169
-0.165583 1.233101 0.672307 33 46 73
-0.205732 0.950235 0.685091 153 149 139
-0.199605 0.956337 0.693216 250 240 253
-0.114498 0.891110 0.473820 7 10 14
-0.209671 1.205902 0.622171 3 5 7
-0.110401 1.225350 0.518927 4 2 4
-0.069844 1.396088 0.678872 0 0 0
-0.093803 1.412762 0.651903 43 78 143
-0.020112 1.120882 0.504573 18 24 32
-0.075741 1.252718 0.698691 0 0 0
-0.276914 0.946673 0.506754 0 0 0
-0.214824 0.961714 0.678792 103 94 83
0.011243 1.236084 0.376058 2 3 6
0.011360 1.075123 0.619418 59 49 42
-0.019490 0.945608 0.578530 77 67 58
-0.137316 0.897609 0.475894 209 175 152
-0.078909 1.263606 0.579579 54 46 48
-0.170281 1.368817 0.734530 9 13 17
-0.008623 1.190138 0.376138 9 14 16
-0.206534 0.966519 0.672940 0 0 0
-0.194565 1.266184 0.633948 26 40 66
-0.040350 0.894381 0.528025 7 11 15
-0.225444 1.011639 0.386666 0 0 0
-0.182455 0.983421 0.594202 55 45 46
-0.066147 0.882419 0.587430 0 0 0
-0.140449 0.944269 0.417379 253 253 253
-0.261328 1.004523 0.623541 0 0 0
-0.267263 0.936412 0.542955 71 55 42
-0.056692 1.379244 0.673244 24 32 44
-0.062212 1.430665 0.663753 7 9 12
-0.110542 1.044342 0.720494 0 0 0
-0.248304 1.376570 0.678248 0 0 0
-0.143831 0.924108 0.430393 7 10 14
-0.227561 0.976579 0.668996 113 100 93
-0.081375 0.909578 0.627458 159 145 137
-0.015403 1.347218 0.544187 76 92 111
-0.248170 1.403719 0.743610 5 3 5
-0.009625 1.244758 0.755635 0 0 0
-0.150059 1.226633 0.648956 34 41 74
-0.156031 1.363504 0.738496 60 66 72
-0.022956 1.116001 0.580769 47 36 33
-0.196314 1.359904 0.328564 64 135 119
-0.082279 1.432767 0.606204 4 7 10
-0.137506 1.073973 0.722900 50 43 36
-0.067206 1.431504 0.667630 1 3 4
-0.248082 1.069439 0.697931 9 12 16
-0.123006 1.376234 0.721415 52 62 82
0.067774 1.166856 0.342868 112 133 175
-0.015001 1.128526 0.606659 9 13 11
-0.052637 1.204636 0.428201 0 0 0
-0.165509 0.997419 0.521128 0 0 0
-0.059395 1.478679 0.572511 4 3 4
-0.121128 0.901275 0.564643 0 0 0
-0.138444 1.309285 0.292004 14 17 23
-0.201741 0.963883 0.660321 239 251 253
-0.045734 1.207786 0.455247 0 0 0
-0.097493 1.421510 0.612964 1 3 10
-0.256980 1.377291 0.717673 70 77 82
0.030004 1.287301 0.383714 0 0 0
-0.071293 1.197757 0.310570 0 0 0
-0.087243 1.428647 0.609351 4 6 10
0.020065 1.265313 0.382075 46 52 60
0.036371 1.003615 0.590602 35 31 36
-0.284444 1.108215 0.485012 0 0 0
-0.110231 0.920563 0.428904 11 14 13
-0.208555 1.058752 0.736751 0 0 0
-0.099273 1.402538 0.701270 5 6 9
-0.056130 1.408723 0.513355 0 0 0
-0.070718 0.926437 0.478425 105 101 99
-0.305788 1.140816 0.613279 39 37 34
0.020057 1.076556 0.424122 11 16 15
-0.083889 1.050886 0.704949 67 53 48
-0.236611 1.164999 0.735640 8 12 17
-0.034318 1.441847 0.598211 4 3 2
0.033016 1.250750 0.373290 136 171 212
-0.059579 1.165068 0.503894 19 22 24
0.024224 1.400314 0.380757 10 16 23
-0.084326 0.899882 0.609998 245 253 253
-0.000790 1.057063 0.544803 95 80 79
-0.094848 0.896047 0.491835 9 12 16
-0.164024 0.949152 0.713509 207 186 174
-0.232615 0.908717 0.590194 104 86 77
-0.072224 1.342486 0.668989 53 84 151
-0.042614 0.927515 0.560054 217 205 209
-0.163934 0.944705 0.714784 209 191 183
-0.168599 0.970093 0.683117 117 106 102
-0.037552 0.922817 0.552720 0 0 0
-0.041597 0.918297 0.551398 195 175 166
-0.195433 1.391701 0.732101 7 10 14
-0.222651 0.891804 0.584370 155 152 141
-0.024091 0.961338 0.570135 0 0 0
-0.070381 0.901612 0.573780 18 23 25
-0.208089 0.981219 0.705824 60 50 35
0.517038 0.702636 1.031583 19 31 31
-0.222497 0.916454 0.482702 0 0 0
0.116366 1.175642 0.343607 104 128 155
-0.204748 0.874748 0.565014 47 49 54
-0.088558 0.896727 0.501858 13 16 18
0.056321 1.410546 0.764409 21 24 35
-0.261849 0.928336 0.635812 0 0 0
-0.084042 1.326730 0.668297 47 41 54
-0.237126 1.383290 0.646028 45 47 48
-0.105497 0.887628 0.626703 215 209 200
0.072206 1.327950 0.367958 0 0 0
-0.195657 1.402263 0.728016 4 6 9
-0.121942 1.403597 0.665516 35 47 64
-0.012954 1.350101 0.540618 79 92 115
0.042409 1.397258 0.414728 45 50 64
-0.018602 0.961871 0.483965 0 0 0
0.051037 1.206051 0.384045 76 88 114
-0.048917 0.839802 0.581365 0 0 0
-0.036986 1.119615 0.487729 44 36 31
0.117066 1.178970 0.343130 103 118 152
-0.208382 1.068053 0.722764 9 11 16
-0.221208 0.889970 0.540135 24 24 27
0.078046 0.892596 0.783530 135 118 100
-0.023893 1.341979 0.549991 48 60 78
-0.167553 1.235387 0.673162 33 52 75
-0.164921 1.106385 0.367307 0 0 0
0.058506 1.311766 0.383069 81 94 120
-0.111386 1.044502 0.720029 69 63 48
0.161380 1.431646 0.693082 18 25 33
0.060296 1.421709 0.747469 18 24 35
-0.052501 1.027556 0.428212 49 48 34
-0.214601 1.220305 0.630356 5 7 10
-0.125221 0.920465 0.534898 235 219 216
-0.119130 0.904801 0.439965 112 112 103
-0.063515 0.927790 0.565875 251 253 253
-0.076457 0.901000 0.595172 186 180 179
-0.215701 0.957248 0.667550 7 10 14
-0.070244 0.909648 0.624548 21 22 26
-1.099227 2.627788 -0.431338 19 22 29
-0.004560 1.043143 0.587108 203 180 181
-0.152035 0.995824 0.544740 0 0 0
-0.009549 1.119056 0.392077 15 13 17
-0.004871 1.294469 0.416115 10 11 19
-0.183939 1.039284 0.283276 0 0 0
-0.282945 1.422790 0.686767 9 12 16
-0.172389 1.375565 0.770725 9 11 16
-0.204018 0.942021 0.701365 0 0 0
-0.090787 1.181392 0.416653 54 69 84
-0.211710 0.891338 0.566883 196 195 196
-0.226659 0.886670 0.578246 0 0 0
-0.170884 1.071631 0.725404 0 0 0
-0.104038 0.889621 0.620378 187 176 182
-0.140122 1.392473 0.692927 0 0 0
0.001803 1.299118 0.431685 7 7 7
-0.140302 0.925146 0.647074 10 12 15
-0.036648 0.921379 0.528210 14 14 8
0.087114 1.165689 0.337841 76 94 120
-0.106647 1.236280 0.517888 1 2 4
-0.168571 0.890161 0.621818 142 137 131
-0.233456 1.363898 0.687164 0 0 0
-0.033993 0.929847 0.563493 181 156 146
0.067983 1.332197 0.370454 55 68 84
-0.079885 0.887505 0.555461 253 253 253
-0.151967 1.347996 0.722212 0 0 0
-0.237133 1.357869 0.694122 6 17 42
-0.165438 0.925291 0.447582 0 0 0
-0.275511 0.930504 0.547996 0 0 0
-0.126574 0.939510 0.453726 0 0 0
0.025936 1.285428 0.391987 26 35 42
-0.138491 0.928380 0.648907 23 25 21
-0.088145 1.392618 0.595933 37 48 66
-0.018833 0.962175 0.574140 54 48 44
-0.259189 1.382370 0.710871 66 73 83
-0.142148 0.950171 0.535346 229 238 228
-0.288478 0.948998 0.585766 0 0 0
-0.120528 0.892272 0.458647 0 0 0
-0.003592 1.089476 0.560164 0 0 0
-0.004190 0.994236 0.529245 65 58 49
-0.045987 0.915012 0.521473 171 163 158
0.010322 1.243503 0.368898 9 17 27
-0.156372 0.883388 0.498580 17 24 30
-0.007604 1.033620 0.507059 13 17 24
0.063032 1.260386 0.341141 22 25 31
-0.126158 0.889267 0.480863 5 8 10
-0.092476 0.895050 0.562276 222 214 200
-0.155080 1.222504 0.627469 7 10 14
-0.078252 0.901348 0.499289 175 152 141
-0.252599 0.926622 0.493149 6 5 6
-0.109338 1.205766 0.629306 0 0 0
-0.113963 0.905469 0.619443 154 142 130
-0.097389 0.896123 0.630921 124 116 110
0.075896 1.313638 0.375713 69 89 128
0.001661 1.310560 0.424562 8 11 16
-0.139508 0.915339 0.456715 0 0 0
-0.037664 1.098566 0.453948 36 49 59
-0.023974 0.930229 0.577227 188 181 175
0.207940 1.320116 0.713363 18 24 30
-0.223926 0.922977 0.467090 32 38 48
-0.008980 1.156302 0.402919 32 48 62
-0.046267 1.045922 0.439002 41 43 42
-0.026027 1.230263 0.370480 8 11 16
-0.077501 1.264413 0.505686 8 11 16
0.156526 0.861345 0.676161 0 0 0
-0.119174 1.384156 0.664057 0 0 0
-0.003194 1.085542 0.518597 71 63 60
-0.246820 0.902952 0.541113 6 10 14
-0.170553 0.902842 0.465361 189 161 153
0.039675 1.019213 0.682608 20 29 48
-0.123784 1.077245 0.721831 65 53 42
0.061808 1.284561 0.326738 0 0 0
-0.128269 0.857170 0.597101 237 228 229
-0.229388 1.166213 0.406113 4 7 10
-0.105175 0.882842 0.547130 7 11 16
-0.147363 1.256342 0.686404 33 48 73
-0.158813 0.883682 0.653647 0 0 0
-0.068421 1.385815 0.728050 4 6 10
-0.292090 1.205622 0.618875 0 0 0
0.004652 1.024464 0.588620 0 0 0
-0.099456 1.413696 0.629487 5 6 5
-0.250291 0.939867 0.464520 24 23 26
-0.075946 1.406872 0.668450 42 65 129
0.048957 1.343441 0.369465 0 0 0
-0.168675 0.904094 0.465682 198 185 165
-0.016238 0.966974 0.566250 58 55 48
-0.237680 0.895812 0.548036 87 84 78
-0.091950 1.414136 0.713531 0 0 0
-0.079828 1.123233 0.446926 54 46 42
-0.124232 1.075116 0.720090 0 0 0
-0.033577 0.927107 0.571227 137 135 126
-0.001294 1.156627 0.594685 12 12 17
-0.208384 0.885641 0.560817 66 69 80
-0.092823 1.297444 0.675581 0 0 0
-0.047826 0.909998 0.579033 0 0 0
-0.141888 0.945167 0.403608 0 0 0
-0.036519 0.949333 0.575441 0 0 0
-0.042042 0.866188 0.865552 0 0 0
-0.180386 1.358075 0.730346 28 35 37
-0.106461 0.901802 0.469704 0 0 0
-0.031127 1.029793 0.492684 0 0 0
0.097051 1.183437 0.319386 0 0 0
-0.147066 0.922869 0.648101 12 14 18
0.066027 1.299831 0.379658 195 253 253
-0.018960 1.085263 0.617783 32 24 19
0.004849 1.288715 0.448219 9 11 17
-0.208431 1.388604 0.739481 5 7 10
-0.124709 0.896752 0.589667 0 0 0
-0.043572 0.926072 0.562241 0 0 0
-0.075395 1.368315 0.675995 48 75 135
-0.093460 1.268591 0.632828 26 33 37
-0.083166 0.895540 0.544132 239 236 237
-0.112942 0.892746 0.490115 20 22 29
-0.128078 0.911598 0.431655 6 8 11
-0.057789 1.408041 0.656142 0 0 0
-0.061568 1.442150 0.628197 0 0 0
-0.221087 0.953445 0.650481 8 12 17
-0.010403 0.966473 0.556088 0 0 0
-0.059187 1.410201 0.680476 54 88 162
0.060252 1.168266 0.351375 116 142 184
-0.178292 0.892217 0.515389 0 0 0
0.088363 1.313411 0.369732 65 85 103
-0.134797 0.924904 0.647905 93 74 61
-0.246707 0.888491 0.541335 0 0 0
-0.099913 1.180539 0.420304 71 87 112
-0.151313 0.930635 0.422874 9 11 16
-0.078596 0.912546 0.635689 145 126 107
-0.123979 1.224723 0.659863 15 24 45
0.028756 1.330526 0.384788 0 0 0
-0.163226 1.270441 0.541766 33 40 48
-0.187494 0.959858 0.694217 190 175 171
-0.076887 1.349516 0.695104 32 41 59
-0.057726 0.980317 0.430321 7 9 12
-0.085449 1.292134 0.654532 14 21 36
-0.035593 0.925187 0.565978 108 105 101
-0.124676 1.055038 0.731149 0 0 0
0.052917 1.260219 0.340504 84 103 126
-0.144790 1.080453 0.632449 0 0 0
-0.182805 1.379189 0.692202 0 0 0
-0.054175 1.215957 0.428016 58 86 116
-0.065430 1.401817 0.723876 6 6 9
0.018212 1.219767 0.377028 0 0 0
-0.107031 0.887002 0.490998 6 9 12
-0.059670 1.385731 0.699223 0 0 0
0.041227 1.189989 0.336780 117 141 199
-0.161520 1.345490 0.296001 10 15 23
0.006327 1.248363 0.382314 24 32 43
-0.095414 1.378063 0.700275 29 36 59
-0.054303 0.896099 0.524348 0 0 0
0.186891 1.558871 0.339485 13 17 26
-0.215682 1.306444 0.381424 0 0 0
-0.190217 0.958470 0.678936 117 110 106
-0.012961 0.977041 0.471359 0 0 0
0.096517 1.135449 0.422284 87 92 109
-0.146653 0.897742 0.467617 162 158 151
-0.044981 0.989044 0.615415 62 57 48
0.041073 0.987821 0.493466 7 11 12
-0.264102 1.199128 0.682884 6 9 12
-0.185885 0.970843 0.695673 121 99 82
-0.113620 1.365918 0.656986 6 11 31
-0.020329 1.139284 0.531777 0 0 0
-0.075912 1.341376 0.675266 56 103 178
-0.109314 1.351042 0.594005 0 0 0
-0.164361 1.364247 0.703057 10 17 36
-0.070030 1.447666 0.618635 5 5 11
-0.137345 1.065816 0.712022 54 48 39
-0.152797 0.959562 0.671956 0 0 0
0.055935 1.317769 0.381723 76 91 119
-0.065299 1.147275 0.477223 31 24 23
-0.091045 1.407857 0.659137 51 96 178
-0.024426 1.197769 0.366298 11 17 18
0.068040 1.241289 0.344561 90 110 138
-0.119008 1.308178 0.609863 0 0 0
-0.133686 0.889421 0.526139 42 45 51
-1.454940 3.105373 0.243891 21 31 50
0.034268 1.261043 0.374155 0 0 0
-0.199747 0.945654 0.650104 7 10 14
-0.061765 1.213883 0.432830 0 0 0
-0.453213 1.479641 0.377701 19 25 32
-0.111836 1.390154 0.693241 34 39 56
-0.087719 1.287224 0.686333 72 64 58
-0.062786 1.235065 0.625242 11 16 20
-0.135089 0.897836 0.469816 0 0 0
-0.005707 1.044744 0.605139 84 65 56
0.060530 1.174984 0.322718 48 62 76
-0.110297 1.231639 0.518344 5 7 5
-0.046903 0.918418 0.578472 236 234 249
-0.206795 0.912374 0.551912 0 0 0
0.081418 1.164788 0.339408 91 112 133
-0.173836 1.143252 0.367384 0 0 0
-0.046533 1.210265 0.552481 0 0 0
-0.144731 0.883651 0.475124 7 11 16
-0.181025 0.876937 0.617487 87 82 73
-0.060253 0.911483 0.592236 253 253 253
-0.091440 1.339652 0.646541 12 22 54
0.124666 1.204865 0.335261 95 107 132
-0.031732 0.929756 0.560354 174 164 154
-0.150754 0.945772 0.504942 0 0 0
-0.045718 1.215819 0.427878 56 82 118
-0.106957 0.910100 0.436245 7 10 14
-0.257924 1.213253 0.590055 51 41 46
-0.161111 1.365014 0.764348 6 8 11
-0.066812 1.393973 0.673569 50 92 190
-0.015536 0.955900 0.572771 90 75 66
-0.270601 1.059963 0.704120 20 17 10
-3.258500 2.924609 -0.957437 7 10 14
-0.217951 1.379371 0.698720 28 32 43
-0.071715 1.217637 0.594902 0 0 0
-0.176370 1.069286 0.728078 21 14 11
0.049230 1.184928 0.305455 12 16 23
-0.240498 1.244326 0.507381 5 8 5
-0.158166 0.898686 0.464994 138 138 140
-0.169198 0.980726 0.569130 122 100 82
-0.123297 1.240765 0.666503 6 11 21
-0.067029 1.246347 0.606967 6 8 17
-0.159700 0.891008 0.628156 22 25 22
-0.219068 0.905845 0.502189 46 52 60
-0.109397 1.264784 0.677449 21 26 28
0.225868 1.241824 0.204506 0 0 0
-0.274694 1.058589 0.672792 17 12 12
0.054659 1.066977 0.490915 0 0 0
-0.182008 0.965271 0.656663 167 157 158
-0.257534 1.167249 0.727546 0 0 0
-0.179020 0.971064 0.702530 106 83 71
0.022049 1.297266 0.437600 9 11 13
-0.061713 0.899131 0.610233 7 11 16
-0.225300 0.916095 0.644019 0 0 0
0.284621 0.704639 0.927325 0 0 0
-0.053130 0.918893 0.602524 219 228 233
-0.201585 0.899589 0.490968 36 37 46
0.003613 1.044719 0.607715 106 82 61
-0.078384 1.356593 0.675507 0 0 0
-0.086963 1.254037 0.668427 49 55 65
-0.061120 1.406529 0.673341 6 7 9
0.072663 1.314028 0.377309 42 54 60
-0.109522 0.894960 0.474614 6 7 11
-0.049502 0.915251 0.499393 2 3 5
-0.117010 1.060022 0.724579 39 33 18
-0.097284 0.892230 0.621711 52 52 57
-0.152617 1.329005 0.743106 0 0 0
-0.103688 1.408514 0.642033 6 5 12
-0.057354 1.361396 0.693341 54 97 177
0.061188 0.965314 0.515021 89 78 73
-0.239300 1.355903 0.655809 6 13 29
-0.295130 1.159212 0.610939 50 41 35
-0.311604 1.111529 0.545321 4 6 9
-0.221094 1.304868 0.930262 0 0 0
0.032615 1.146230 0.432781 199 253 253
-0.102390 1.244057 0.663614 22 31 57
-0.065893 0.902575 0.561907 0 0 0
0.115734 1.236565 0.311993 62 69 87
-0.095465 0.890509 0.622580 56 68 75
-0.113090 1.422911 0.635230 0 0 0
-0.142379 0.898401 0.616790 156 150 138
-0.248600 0.913663 0.520661 198 185 178
-0.071542 1.349399 0.648896 83 106 141
-0.099915 1.371055 0.662039 61 99 182
-0.205682 1.323347 0.729695 0 0 0
0.122481 1.216951 0.333070 87 102 121
0.005673 1.115027 0.562733 12 12 7
-0.110133 1.310986 0.698980 0 0 0
-0.220501 0.883676 0.559935 7 10 14
-0.098781 1.404113 0.667097 41 67 135
0.095048 1.323021 0.370855 12 13 23
0.026716 1.185911 0.363127 7 10 14
-0.093369 1.349377 0.644979 6 24 48
-0.167653 0.964357 0.684577 154 145 142
-0.261362 1.378474 0.725219 82 98 103
-0.090053 1.101281 0.425792 7 10 14
-0.200187 0.954395 0.675525 0 0 0
-0.222428 1.007768 0.649872 174 151 137
-0.156691 0.872843 0.479899 9 12 17
-0.132338 0.985178 0.534095 0 0 0
-0.191149 1.419396 0.735424 0 0 0
-0.000074 1.237157 0.366080 15 22 29
-0.068874 1.366021 0.694235 40 65 117
-0.053478 1.253806 0.310562 30 41 53
0.001410 1.037079 0.593858 145 130 116
-0.245693 1.316453 0.434044 0 0 0
-0.165783 0.897136 0.608823 171 162 151
-0.087105 1.253525 0.513996 8 11 23
-0.107258 1.054504 0.721444 70 63 54
-0.040106 1.444103 0.599944 2 2 6
0.124027 1.001803 0.554997 0 0 0
-0.231679 0.924520 0.487974 25 30 44
-0.020862 1.061606 0.629825 104 90 66
-0.055375 1.356227 0.697720 0 0 0
0.000557 1.400699 0.794910 0 0 0
-0.087454 1.414869 0.715242 0 4 3
-0.010110 1.113362 0.395463 9 11 17
0.034905 1.240866 0.377313 0 0 0
-0.219649 0.879197 0.539954 0 0 0
-0.057540 1.352343 0.580844 42 57 73
-0.084179 1.138869 0.333204 0 0 0
-0.034241 0.899794 0.522131 8 12 16
-0.177381 0.877403 0.516454 0 0 0
-0.033244 0.960803 0.464729 0 0 0
-0.212758 0.882716 0.544068 7 11 16
-0.095089 1.273353 0.614402 0 0 0
-0.022901 0.845030 0.567572 0 0 0
-0.116652 1.056451 0.733020 0 0 0
-0.119160 1.227346 0.638440 8 13 23
-0.281489 1.123130 0.487442 51 57 73
-0.238630 1.334234 0.434741 65 77 100
-0.277220 1.119910 0.477096 12 13 21
-0.249584 1.381383 0.671842 78 86 101
1.829969 2.475009 -0.212648 69 83 104
-0.304861 1.041452 0.695482 0 0 0
0.113746 1.001926 0.624721 9 14 18
-0.107696 1.409371 0.622377 2 2 2
-0.134402 1.296719 0.750705 26 44 67
-0.109616 1.233739 0.652208 0 0 0
-0.092346 1.304131 0.714552 10 16 23
-0.084578 1.319670 0.666800 0 0 0
-0.447255 1.410810 0.591326 18 24 24
-0.101418 1.330698 0.667912 0 0 0
-0.165179 0.975289 0.692477 149 138 134
-0.113733 1.184116 0.418755 32 46 55
-0.090034 1.035252 0.406811 6 7 9
-0.216545 0.988254 0.411799 13 17 16
-0.029838 1.042960 0.610422 134 111 98
-0.078081 1.195972 0.459542 12 19 29
-0.026802 1.153674 0.522805 0 0 0
-0.091556 1.375778 0.597340 51 62 81
0.069649 1.292036 0.377135 107 124 162
0.045253 1.313971 0.394112 13 15 25
-0.089191 1.366136 0.295968 0 0 0
0.069480 1.302116 0.386427 122 153 171
0.022907 1.039899 0.601429 105 89 79
-0.081511 0.923216 0.539615 233 235 253
-0.153439 0.895797 0.458619 0 0 0
-0.196384 0.879695 0.597879 0 0 0
-0.212023 0.912901 0.467056 77 84 84
-0.117266 1.059601 0.378644 0 0 0
-0.040287 1.075462 0.444399 9 12 16
-0.212907 0.894497 0.519360 47 46 64
-0.107798 0.898078 0.474513 18 23 28
-0.083719 0.948148 0.429447 0 0 0
-0.062231 0.878019 0.565223 68 78 77
-0.137837 0.977454 0.538558 198 201 216
-0.169039 1.003336 0.723725 110 97 86
0.171854 1.467959 0.556524 26 30 39
-0.190014 0.919381 0.455245 0 0 0
-0.225744 0.897079 0.552382 0 0 0
-0.211819 0.887835 0.459421 0 0 0
-0.142223 0.914001 0.469107 0 0 0
-0.107249 1.272856 0.709630 0 0 0
-0.092680 0.945926 0.430119 0 0 0
-0.059029 1.128798 0.454657 4 5 3
-0.112152 1.290785 0.694538 15 12 17
-0.277259 1.049860 0.490227 149 126 110
-0.282830 1.044216 0.663210 82 62 54
-0.387884 1.109432 0.653239 0 0 0
-0.123603 1.237767 0.664307 2 5 9
-0.234531 1.038984 0.494881 0 0 0
-0.171542 0.947430 0.690217 0 0 0
-0.119660 0.890596 0.613137 229 226 225
-0.010106 1.084654 0.615833 36 25 20
-0.156673 1.178943 0.381563 6 6 10
0.031161 1.262307 0.377820 128 151 188
-0.150812 1.358500 0.743827 0 0 0
-0.176752 1.367955 0.303496 77 108 141
-0.022253 1.101688 0.486687 24 17 21
-0.227071 0.916825 0.483816 135 119 102
-0.182141 0.885871 0.531691 0 0 0
-0.045946 0.919569 0.577956 105 99 98
-0.228912 1.367406 0.700775 34 39 46
-0.026824 0.926053 0.572265 0 0 0
-0.030061 0.946721 0.484020 8 11 18
-0.272319 1.032797 0.475805 8 12 10
-0.008348 1.247893 0.339850 0 0 0
-0.138831 0.899154 0.484473 232 215 204
0.056177 1.249954 0.340315 65 83 116
-0.012285 1.040534 0.579753 116 94 83
-0.174545 1.301300 0.315589 65 98 135
0.022144 0.960419 0.503478 63 56 48
-0.233162 1.041083 0.436081 48 53 47
-0.096135 1.292622 0.652129 9 12 22
0.057034 1.218274 0.334373 71 87 113
-0.100949 0.892324 0.492695 102 101 105
0.070267 1.168675 0.323778 0 0 0
-0.141314 1.305422 0.298540 59 74 87
-0.101396 0.905021 0.488594 181 149 138
-0.187554 0.988577 0.716998 5 8 12
-0.112977 1.400584 0.666356 101 123 170
-0.294478 1.536635 0.350067 0 0 0
0.041802 1.237680 0.672875 0 0 0
-0.120190 1.377573 0.294072 16 28 29
-0.150596 0.978064 0.693289 98 94 79
-0.071812 1.354430 0.662079 38 69 120
-0.037890 1.139407 0.503555 5 11 10
-0.132627 1.010072 0.400977 26 31 37
-0.224087 1.366916 0.554056 26 29 36
-0.125396 1.070004 0.726160 23 18 13
-0.201147 0.897751 0.506630 5 7 11
-0.129341 1.378051 0.750319 86 105 135
-0.255966 1.015975 0.417430 0 0 0
-0.232372 1.341666 0.709868 7 16 35
-0.209826 0.906070 0.557080 253 253 253
-0.197526 0.910436 0.466580 0 0 0
-0.184759 1.266028 0.324983 0 0 0
-0.282939 1.056921 0.657415 76 67 54
-0.096381 1.427652 0.655239 26 56 109
-0.207448 1.338845 0.342733 63 78 107
-0.270356 1.027803 0.507385 0 0 0
-0.045989 0.911518 0.527451 145 157 165
-0.277004 1.061077 0.662498 0 0 0
-0.199940 1.234526 0.651111 34 49 79
-0.272638 1.161286 0.578546 29 35 48
-0.271258 0.998092 0.628316 156 140 129
-0.274971 1.167739 0.629129 10 16 34
-0.447291 1.404020 0.603553 20 25 30
-0.205722 0.895961 0.535249 28 31 42
-0.156912 0.874767 0.624922 0 0 0
-0.189620 1.349495 0.334417 71 86 114
-0.189380 1.303232 0.329507 64 73 94
-0.062427 0.908692 0.500569 171 172 173
-0.121568 0.958200 0.521409 253 253 253
-0.120868 0.883228 0.474288 13 17 17
-0.040384 1.287280 0.323680 11 10 15
-0.309109 1.190987 0.602808 4 3 4
0.107908 1.293218 0.344921 113 143 192
-0.239433 1.371314 0.692619 70 77 91
0.070293 1.196099 0.338356 0 0 0
-0.163572 0.978386 0.405821 17 14 17
-0.370579 1.046132 0.484799 67 88 110
-0.271405 1.227156 0.611662 11 12 17
-0.049509 0.905149 0.576578 0 0 0
-0.014289 1.002725 0.550127 0 0 0
-0.000031 1.087723 0.600427 3 4 7
-0.092615 1.374342 0.627653 10 17 17
-0.073281 1.445300 0.617872 0 0 0
-0.143462 0.935265 0.479695 0 0 0
-0.121023 1.388017 0.702398 0 0 0
-0.211560 1.204004 0.470893 0 0 0
-0.233201 1.367273 0.591809 0 0 0
0.018305 1.245179 0.367304 26 35 46
-0.301844 0.870158 0.482348 0 0 0
-0.042719 1.295267 0.305250 0 0 0
-0.051890 1.221024 0.330606 63 73 96
-0.237769 1.338741 0.621939 0 0 0
-0.222389 0.897338 0.517785 222 218 222
-0.126075 1.383888 0.298723 50 71 78
-0.233775 0.989405 0.501707 88 63 51
-0.143518 1.074583 0.410828 34 33 24
0.009205 1.310703 0.426038 9 11 13
-0.204380 1.327281 0.713832 20 29 43
-0.124686 1.452674 0.659809 0 0 0
-0.071183 1.093833 0.435101 0 0 0
-0.021179 1.004399 0.575413 57 42 30
0.064087 1.294069 0.365457 70 87 108
0.003412 1.076568 0.586973 56 43 35
0.013425 1.236333 0.380655 12 22 29
-0.082571 1.357796 0.704835 41 42 56
-0.112444 1.186758 0.415408 33 41 62
-0.228833 0.887047 0.573450 5 7 10
-0.078970 1.401101 0.677297 61 103 191
-0.007494 1.163479 0.343316 1 4 3
-0.119000 1.373673 0.300273 29 49 42
-0.148995 1.186616 0.577877 74 62 55
-0.095288 1.427300 0.667894 0 0 0
-0.037002 0.925736 0.568681 199 188 181
-0.088696 1.309096 0.701840 40 33 36
-0.066536 1.349763 0.679631 38 65 119
-0.221716 0.897771 0.617003 5 7 10
-0.064852 1.167903 0.525142 9 8 11
-0.118544 1.323164 0.732182 5 8 12
-0.177309 0.881786 0.600233 205 202 193
-0.053369 1.370133 0.581291 47 61 90
-0.097168 0.897616 0.495062 231 214 188
-0.103034 1.401163 0.670314 42 67 123
-0.214172 0.880913 0.553928 136 136 136
0.002084 1.213923 0.372899 0 0 0
-0.305172 1.221372 0.566947 0 0 0
-0.110851 0.896944 0.401805 25 28 37
-0.315829 1.085172 0.454619 17 17 27
-0.071085 0.904565 0.503212 202 186 173
0.027423 1.272850 0.387950 98 120 159
-0.100725 1.305763 0.297673 92 133 196
0.093833 1.308096 0.354405 62 80 98
-0.050958 1.130969 0.457250 1 5 4
0.040530 1.313370 0.389434 8 9 13
-0.175675 0.933258 0.466735 0 0 0
-0.191792 1.263215 0.341938 151 199 253
-0.151044 1.291141 0.309984 7 10 14
-0.101134 1.309321 0.712021 26 42 67
-0.179998 1.170113 0.515892 0 0 0
-0.057162 1.082077 0.442029 0 0 0
-0.055944 1.054823 0.434989 0 0 0
-0.002135 1.069133 0.501358 81 71 60
-0.049576 0.940238 0.461269 39 42 40
-0.024717 0.937107 0.543677 211 202 189
-0.044628 1.007537 0.436796 43 39 37
0.064824 1.168132 0.341044 239 253 253
0.058373 1.253470 0.333194 65 86 116
-0.157726 0.886462 0.611916 178 173 164
-0.170179 0.886142 0.483457 6 9 12
-0.140371 1.164607 0.455569 9 6 4
0.086285 1.155459 0.318317 12 11 17
-0.269266 1.066766 0.676791 59 52 46
-0.104445 1.352397 0.306541 0 0 0
0.069296 1.194671 0.319786 71 89 117
0.055677 1.241095 0.340291 76 92 122
-0.194775 1.122224 0.451476 15 12 16
0.078800 1.172412 0.324950 187 189 189
-0.183134 1.350085 0.313608 48 98 81
-0.013092 0.955434 0.557727 0 0 0
-0.082888 1.426299 0.608071 8 6 10
-0.011546 1.087787 0.517496 65 53 53
-0.062873 1.170311 0.551449 3 3 4
0.020155 1.402120 0.293485 0 0 0
-0.006827 0.965212 0.609964 9 11 16
-0.147003 1.048121 0.724669 0 0 0
-0.089154 1.383243 0.730395 24 38 61
-0.004864 1.409497 0.574019 0 0 0
-0.088420 1.291156 0.676725 72 57 50
-0.099619 0.877542 0.632264 0 0 0
-0.119331 1.399651 0.677992 60 73 100
0.179751 1.547235 0.333868 19 26 40
0.062115 1.246839 0.339121 44 48 70
-0.011894 0.962594 0.536832 0 0 0
-0.053323 1.163234 0.530281 10 9 11
-0.069288 1.334258 0.659057 40 59 101
0.066840 1.235871 0.332793 47 58 73
0.060180 1.276397 0.345325 51 59 85
-0.107939 1.241182 0.675413 38 55 80
-0.082488 1.254273 0.679820 5 7 11
-0.005456 0.990714 0.512155 101 90 91
-0.060540 1.025611 0.480767 43 36 36
-0.048989 1.430439 0.615375 0 0 0
-0.205412 1.347839 0.314829 0 0 0
-0.292448 1.046669 0.497961 134 106 94
-0.099627 1.164851 0.410589 7 8 7
-0.108274 1.226293 0.664082 37 49 69
0.108199 1.169450 0.305108 0 0 0
-0.178750 1.162550 0.472179 0 0 0
-0.085316 0.883380 0.541816 0 0 0
0.069825 1.220359 0.334430 74 98 122
-0.130225 1.275528 0.516045 0 0 0
-0.124430 1.395996 0.664200 55 57 71
-0.095909 1.253763 0.404101 0 0 0
-0.124394 1.377292 0.752999 130 161 199
-0.115606 1.422335 0.627764 0 0 0
-0.137249 1.049800 0.727767 43 35 25
-0.020103 1.022358 0.587385 0 0 0
-0.263846 1.229253 0.636196 0 0 0
-0.101272 1.151305 0.441774 0 0 0
-0.129867 0.891045 0.504859 8 10 13
-0.157579 0.883257 0.588302 75 62 53
-0.019369 1.028664 0.598848 133 112 90
-0.074328 1.413454 0.663142 54 99 179
0.053269 1.307490 0.385127 62 72 96
-0.130799 1.352695 0.727795 79 86 99
-0.019309 1.030525 0.588147 107 85 78
-0.069608 1.067887 0.428583 35 34 34
0.010297 1.311707 0.333436 76 99 122
-0.096562 1.094578 0.365477 7 10 14
-0.088512 1.376526 0.331388 133 163 208
-0.115190 0.939817 0.528894 43 44 41
-0.125632 0.890238 0.613164 200 193 185
-0.094923 1.337901 0.698915 7 10 14
-0.147799 0.898232 0.649391 5 8 12
0.089164 1.169668 0.322772 186 198 198
-0.130278 1.386776 0.647815 6 16 27
0.089930 1.175966 0.337879 56 64 85
-0.127199 1.423076 0.633155 7 10 14
-0.288589 1.047124 0.503319 127 103 80
0.048314 1.316851 0.393788 0 0 0
-0.070342 1.383350 0.681891 14 22 42
0.005991 1.252768 0.353964 0 0 0
-0.164545 0.874404 0.577958 0 0 0
-0.085837 1.382089 0.308812 54 70 94
-0.167755 0.872658 0.512764 2 4 5
-0.039233 0.919602 0.555968 123 115 114
-0.130802 0.877827 0.604455 8 12 17
-0.244907 0.952812 0.440061 7 12 13
-0.101982 1.356061 0.613874 3 12 25
-0.066315 1.232289 0.377211 43 73 104
-0.191805 0.889795 0.536546 219 222 209
-0.054356 0.904016 0.495366 9 12 10
-0.175115 1.312608 0.315620 0 0 0
-0.111027 1.368254 0.308977 90 125 172
-0.230002 0.895048 0.521140 37 38 33
