# 3D point list with one line of data per point:
6245 -0.11956617694572379 1.062977142381259 0.724168009520522 80 68 66 1.2884781917096697 282 154 323 201 241 139 321 137 362 144 319 114
7060 -0.09373716697757543 0.9007012583065809 0.4815057439273255 253 250 253 1.591384022188226 279 73 359 76 360 38 358 63 196 117 400 57 281 41 159 147 361 38 81 60 320 46 103 153 318 58 356 49 319 55 397 54 117 135 395 45 396 46 316 54
6249 -0.035429845085000404 0.9242907894740191 0.5555956339204595 233 230 219 1.0149993928211287 322 160 360 144 359 170 254 144 239 131 400 138 238 150 361 132
7064 -0.023440479087913524 1.1237362298919416 0.6059519993729063 51 49 54 1.2884418398869568 160 49 358 96
8885 -0.12150313534413947 0.8746358866547032 0.5247820735423806 7 11 16 2.134650162638059 44 15 37 9 43 17 2 19
6251 0.07199203282131973 1.3577270514929152 0.3503249000032033 0 0 0 1.3557749614782122 322 195 323 205
7068 -0.14428131174706926 1.069140141522469 0.7246104253301608 29 23 19 2.093963343405965 265 125 357 133 276 135
6259 0.051880392199559526 1.4836128470530314 0.5403181874000558 39 47 54 1.4126518326310016 166 171 161 192 200 177 160 179 198 185 254 158 196 151 238 153 276 143 199 140 236 131 275 108 352 112 274 91 163 190 240 159 243 149 285 146 239 143 241 150 265 147 277 164 278 147 279 165 281 133 282 152 283 156 318 125 319 136 320 128 321 141 323 172 357 157 359 160 360 155 399 121 400 145 187 156 317 110 398 129 316 109 358 152 356 144 315 108 355 126 395 114 397 131 396 115 313 95 284 141 322 163 361 126 272 96 314 89 162 174 204 147 208 131 244 139 363 140 364 141 362 130 197 146 181 145 194 125 354 106 192 113 193 110 273 98 312 84 353 121 393 126 394 131 191 109 271 95 311 81 350 123 351 116 391 112 392 117 203 148 324 159 245 131 339 142 164 148 365 116 270 93 390 118 190 87
8162 0.20197004705791105 1.459370796186566 0.6386755410472293 18 24 31 1.5115489750354378 237 131 276 99 278 96
6260 -0.019409577955123655 1.1814454853190222 0.584721704537875 6 9 17 1.545292340054275 321 11 281 4 320 3 282 2 39 19
6267 -0.19314343738560039 1.4089428172337117 0.7315339306750138 0 0 0 1.6643252439824774 162 15 122 9 123 11 203 17 284 8
6272 -0.15831490168855447 1.234451826423068 0.6596158166110297 34 49 80 1.4782708226469268 122 19 42 10 81 6 121 9 163 19 201 19 160 11 240 23 43 9 82 12 3 10 4 5
6277 -0.02970940273806399 0.9707172349032918 0.4671941940044274 6 6 6 1.810851947150946 241 46 322 99 159 39 61 43
6278 0.0425640553228464 1.266858113338921 0.38475294214813455 93 126 154 1.9277108644515242 122 38 163 36 42 37 81 35 84 63 121 38 83 47 43 37 4 32
6280 -0.12262368419931258 1.0501771714923802 0.4394808142132308 0 0 0 1.8853745295814954 241 44 321 24
6937 -0.10288894713952333 1.3128102619212714 0.7286805915398357 0 0 0 3.1887189022901476 81 126 187 138
6281 -0.06495409846191465 0.9104521114046233 0.519451351066124 19 29 35 1.7130695609523512 122 97 187 45 161 58 123 91 201 53 281 42 318 37 319 41 163 74
6284 -0.06670904527118422 1.4416809610663426 0.6052778865683534 9 16 17 0.8095687763402794 241 30 78 80 362 14
8784 -0.21854425260658814 1.3906428927275958 0.7373534934378485 1 2 4 1.3214995353092451 85 32 87 27 73 31 41 42
6290 -0.23428159470226453 0.9022577318303472 0.5033767983065527 26 30 28 1.4279331912934685 187 157 359 174 159 149 194 130 153 111
6292 -0.0800127121408622 1.3107892883381658 0.6937440725001348 43 36 35 1.7704623678603022 122 90 240 160 161 132 42 103 81 96 121 66 83 128 201 135 43 66 82 53 3 61
7013 -0.00259457923853003 1.31894529806055 0.34176741016525325 0 0 0 0.11445287733531244 42 5 282 23
6296 0.009885800617224006 1.2491916626714195 0.3856102025771788 36 43 54 1.6466482535741886 122 153 81 133 121 146 201 120 163 161 43 132 82 132 120 135 3 112
7017 -0.16878602483942598 1.323784316408476 0.7681329281337688 0 0 0 0.9439320471308396 121 10 360 16
10028 -0.27677441508034456 1.1389131824654415 0.6249253974034861 39 31 29 1.8215313522150358 331 26 368 72 291 27 369 12
8799 -0.24719276073768978 1.3879098455686405 0.6582431966073619 40 51 57 1.8005105042375322 42 156 81 136 43 138 86 130 41 145 83 157 203 79 44 121 85 114
6297 0.020212643101168267 1.2691735308308747 0.38968923071801204 31 34 46 1.125688576376149 241 127 161 147 200 118 201 119 265 118 160 145 198 107 254 98 239 115 118 128 158 105 78 125 196 106 159 106 103 105 120 125 76 103 61 100 199 92 156 93 117 88 197 97 77 94 37 114 75 70
7532 -0.278550833211282 0.9749353212045211 0.551317195095865 12 15 19 0.8123516980558744 198 76 281 122
9754 -0.08324585624425555 1.3603694236872248 0.7014226022688261 37 64 110 1.5965294054945351 346 79 306 56 348 56
6308 -0.19572022167731934 1.257683671380956 0.6849753925217587 13 19 33 1.146994083824017 163 5 187 5 166 5 42 4 4 1
6309 0.033294039203556 1.28422579026779 0.388830687317744 23 28 35 1.2321885620971909 163 88 322 96 363 118 282 78 241 65 161 64 187 89 240 103 321 70 323 115 81 63 121 64 200 70 201 60 265 62 359 87 160 60 360 75 198 66 279 61 254 59 43 62 358 55 239 56 400 83 82 56 80 59 158 64 78 56 196 57 277 65 238 48 281 65 159 51 278 52 237 48 320 49 103 58 361 103 362 107 356 50 399 79 398 86 357 45 318 62 120 62 76 55 276 46 319 62 61 46 199 45 397 71 156 42 197 41 157 44 236 48 181 46 395 60 355 48 396 59 317 54 235 47 394 56 275 46 39 60 37 49 3 62 354 50 36 58 155 36 40 52 194 52 116 38 234 54 393 66 352 52 315 38 316 45 353 60 233 43 75 33 232 46 274 28 153 41 115 26 154 41 273 44 313 45 152 48 35 41 314 39 74 38 72 43 312 35 34 40 272 36 193 39 392 61 350 51 114 36 31 34 113 38 311 44
6314 -0.1703859289088892 0.8933459432153024 0.4692510015565197 18 18 21 1.842753503395407 182 96 64 97 145 87 141 72 79 95 142 95 119 86 102 86 143 101 63 92 25 73 101 77 185 78 107 103 29 71 105 68 28 62 65 26 144 82 186 84 146 79 183 80
6316 -0.023043121730534518 1.318355955793725 0.31331424525630824 4 7 10 1.8975936543484908 256 5 219 6 142 7 102 4
7484 -1.4185692243067562 3.029298447999691 -0.8428965238420433 20 22 35 0.12558188549143312 358 0 238 99
6322 0.024915871488718433 1.2585450613456808 0.38666312606849995 20 21 27 1.6556471573472429 163 65 122 67 322 91 240 61 363 120 282 77 241 63 187 62 321 68 161 63 283 95 323 95 121 53 200 71 201 61 265 66 359 73 360 67 160 59 198 64 279 62 254 58 43 60 358 54 239 57 400 72 82 58 80 58 118 60 158 63 78 57 196 58 277 55 238 47 281 56 159 54 278 43 237 46 103 57 320 50 362 93 361 78 356 67 398 72 399 78 318 61 120 61 76 52 276 45 61 56 397 70 156 54 117 53 197 47 157 39 236 45 181 45 395 61 396 57 317 46 235 46 394 58 39 50 3 51 354 49 275 45 155 35 194 41 234 53 393 65 352 51 315 37 316 42 353 59 233 42 232 51 192 52 274 45 153 42 115 25 154 35 88 37 273 49 313 36 152 47 272 35 314 38 74 37 112 40 77 47 312 36 40 51 36 57 37 50 38 52 34 39 392 60 114 35 31 29 150 45 113 41 71 36 111 48 33 23 32 39
6323 0.03979895717920376 1.2854070843269574 0.3857281772881677 60 72 89 0.953827203616708 163 172 122 173 322 185 282 156 241 135 161 183 162 191 323 193 42 152 121 133 200 171 201 141 265 146 359 166 360 175 160 152 198 175 279 157 43 148 358 198 239 138 82 140 80 146 158 153 78 146 196 164 159 158 320 160 356 178 120 126 76 162 199 150 77 141
8811 0.051097204928029175 1.3036688517789 0.3871777073160589 100 123 150 1.814271702438192 279 172 320 152 198 178 238 163 398 162 121 174 61 158 160 180 364 152 357 177 319 154 181 150 360 183 317 129 155 115 237 150 194 138 361 142 316 117 154 102
9626 -0.1334789670981664 1.378929364085271 0.7514631550709191 94 122 144 1.976203286054079 287 19 325 9 246 17 339 15 285 9 245 17 324 15 284 13 165 20 244 15 164 11 125 22 166 21 204 20 124 21 243 11 323 12 283 12 162 20 123 19 203 20 163 17 122 13 322 13 282 8 187 13 240 17 241 11 161 12 81 14 84 20 121 23 83 22 201 12 82 18 238 8 281 9 320 8 361 17 42 22 43 24 364 11 365 13 363 14 362 16 399 18 208 16 321 12 360 11 126 23 127 15 248 21
6327 -0.09316286906725141 1.2472670578017333 0.6556014037757197 23 36 54 1.6829912697144533 322 34 363 39 124 67 243 45 323 39 283 49 162 66 123 81 203 63 240 52 282 32 241 36 187 54
6336 -0.1214670109162801 1.2490922529756898 0.6974177148537974 0 0 0 0.2096620944434861 123 23 162 24
6993 -0.026215918652290737 1.0399726226937573 0.6019732797133128 128 99 82 1.6281829568909254 198 126 254 159 358 174 196 123 277 117 103 110 117 114 155 87
6350 -0.175491017144682 0.8995186936664396 0.6033466884630031 161 151 136 1.9677619861978572 46 111 83 71 123 98 8 67 44 123 2 76 244 91
8848 -0.2840505680777285 0.9431770612193202 0.5215072133557881 40 37 30 0.6861313385379223 236 38 395 135
6354 -0.12692848555131242 0.8858794901861873 0.6391190559442085 234 229 245 1.5999064293488576 163 121 243 136 83 183
8099 -0.02948726347081926 1.3457064934087135 0.5377598973074434 61 77 107 2.103483827016867 42 6 83 3 122 4 4 2 39 5
6356 -0.1635140113069643 1.338662429790841 0.7375911647219652 0 0 0 1.9674333934322172 323 142 363 136
6360 -0.005849748315077098 1.0139414089236207 0.58588926501371 10 16 23 1.783667886482326 245 24 46 20 86 20 1 19
14458 -0.05281075193890108 1.3489562025334914 0.3297339189118081 0 0 0 0.39019146689758805 31 18 190 9
9717 -0.03055419175426933 0.9349805251426072 0.6008348826374338 0 0 0 1.469819961995297 61 88 103 65
6362 -0.0886301776414299 1.2525876493686499 0.67372203593938 36 38 57 1.4427192360563104 46 129 42 105 123 116 84 70 45 125 83 87 82 123 160 140 118 131 196 125 159 126 278 132 61 131 40 112 122 129
6370 -0.18173370973612854 1.3732398172533067 0.6767300687019945 6 8 12 1.2856866013443469 84 9 61 24 81 11 103 17
8491 -0.07463699124249237 1.2863645864056963 0.6553786680160257 19 23 36 1.882133422256181 196 36 159 36 103 26 318 33 76 31 61 22 359 42 37 25 40 29 235 37
9818 -0.2954598942212239 1.070931775445402 0.4889014356023382 68 52 43 1.4451443587459754 252 57 172 37 53 27 110 25 54 24 93 37 211 41 50 64 132 53 135 38 92 50 51 52 173 47 171 57 52 38 12 28 10 46
6372 -0.28151881897764724 1.1846720277464788 0.5378454788840302 0 0 0 0.8688012521261109 46 11 321 85
6374 -0.05849613864977281 0.8655721702440358 0.663647273032093 8 12 17 2.4424132974615222 123 87 42 18
6375 -0.22066522810230235 0.8945694042617864 0.579209592264668 190 173 165 1.7439310141949942 122 16 161 27 81 27 121 24 265 23 359 19 160 28 42 19 43 30 82 31 361 13 399 19 120 38 320 9
7540 -0.23654460650248704 0.906153348182693 0.454102143975731 0 0 0 1.774589783532731 238 7 400 2 196 11
8876 -0.026077749672217224 0.9378692802360779 0.5799991519375616 70 63 63 1.9192946940217088 124 153 123 130 166 131 85 124
6382 -0.05854113581690876 1.3657374947033596 0.6736492533896249 34 39 49 1.9084975121736316 122 83 187 52 42 68 81 71 121 62 281 40 201 55 282 73 318 80
6383 -0.29206436529509233 1.0638422478666083 0.5991707840393395 53 45 34 2.264424393485777 123 50 42 74 83 46
7548 -0.17345963917154886 0.9948539575826548 0.7201960053161861 0 0 0 0.29094607888875945 122 30 163 33
6384 -0.10453569923302797 1.0369836310667886 0.7150326220397308 85 74 69 1.576845195075621 124 141 241 101 42 83 84 147 45 111 200 108 265 107 360 104 160 82 279 100 254 99 43 98 358 114 239 103 400 126 82 93 118 78 158 94 196 86 277 90 281 94 278 91 237 94 103 100 320 88 361 109 356 116 398 106 357 101 318 91 76 78 276 105 319 89 61 107 199 89 397 110 156 100 117 94 236 81 181 104 77 81 395 104 396 103 235 95 394 120 37 88 39 83 36 93 355 72 40 80 194 89 116 80 234 86 75 86 275 77 115 72 38 92 74 62
6386 -0.09013001334661946 1.2682598589375405 0.5925873045442388 55 70 85 2.5192718400281704 124 55 61 72 38 53 77 34
6391 -0.09302441995411705 0.9114308129125587 0.6143350825655088 172 162 151 1.4999263120574673 240 107 42 119 81 139
7492 -0.1851991871685573 0.9637615035711469 0.685972372173092 210 199 195 1.5515926008859793 238 152 159 150 103 156 197 161 76 164 235 115 192 99
6393 0.01794701203195934 1.246974038889343 0.3859221063837099 102 125 166 1.024428085467441 83 147 42 148 37 112 39 111 3 97 36 102 155 79 354 87 40 101 194 91 116 81 234 94 352 101 316 75 353 118 392 114 193 86 233 99 75 76 232 108 192 104 153 74 115 73 154 81 88 90 38 80 273 93 313 89 191 106 152 102 231 94 271 96 113 78 35 77 272 88 314 75 74 70 72 88 312 87 311 83 4 95 391 133 150 89
6395 -0.28507460060625095 1.045387724844987 0.6553849013715104 35 25 29 0.5807727212292293 163 162 42 165 4 112
6396 -0.16241168193610378 0.8944746370968053 0.47451429682700863 30 35 45 0.7712263957455214 124 156 42 167
6405 -0.2758139487392818 0.9348452702482928 0.5474340444480461 8 12 17 0.631233113142307 321 18 42 51
6406 -0.08401811226125491 0.715220299605878 0.6529912604100724 0 0 0 1.5547205155229882 240 7 282 38 283 91
6412 -0.1441288158913727 0.9246154857955136 0.64628950374293 9 12 16 2.008659431192928 122 10 81 8 45 8 121 11 200 14 359 12 83 10 160 12 279 8 254 12 198 9 43 12 358 21 400 16 82 11 46 9 41 15 86 14 85 13 2 8 1 13 5 12
7359 -0.08400527526830906 0.8978974041810229 0.490036776800318 32 39 41 1.757920239831817 42 180 81 171 84 160 166 162 204 143 124 158 203 159 123 177 162 171 121 153 83 168 160 167 43 158 82 152 80 149 158 159 78 150 118 155 200 166 120 142 76 146 61 148 45 175 2 94 1 102
6413 -0.1847489627525043 1.3456576285623063 0.7299845769426405 4 8 17 2.3640078840918037 42 9 187 10 4 6
6415 -0.29717401904182517 1.1534308074113628 0.6211620004932821 50 39 24 1.6851751915678301 122 24 84 18 45 9 121 27 83 15 160 30 200 28 158 34
9918 -0.12164498441364775 0.8794262586020491 0.6075666735271218 239 241 237 0.26810159733977856 354 80 353 91
6788 -0.20079248679772205 0.994231950607437 0.6941211986414598 69 47 41 1.622942867861916 201 21 203 23 240 26 292 22 290 26 289 18 249 25 247 19 248 22 246 23 205 17 208 14 164 13 166 18 204 16 250 24 251 25 187 20 265 20 279 19 277 26 291 33
6425 -0.2626219429361817 1.1897963215945444 0.6152730779255892 55 46 42 1.7065257515606727 42 33 46 28 123 30 121 31 200 44 83 26 160 36 198 49 43 32 82 29 80 28 118 36 158 52 78 38 159 43 103 41 120 39 76 38 61 41 156 56 77 45 37 30 39 25 3 28 4 24 40 28 36 39 75 43 115 39 38 47 35 46
6792 -0.062188762238474846 1.3604448819175703 0.6814661700179605 42 77 145 1.0514322785071246 265 148 395 109 355 74 181 79 394 75 194 72 354 78 393 84 315 67 75 57 274 73 153 62 115 58 35 60 314 61 74 51 114 58
9269 -0.03799890981654176 0.9098973247074681 0.49585342107565983 0 0 0 0.6889695961844959 76 17 163 7
6426 -0.13310184834577773 1.3131978750842492 0.7118868417610262 0 0 0 2.0433525642253145 240 39 321 37 162 38 203 46 123 37 365 12 360 35 400 42
6427 -0.2507490948981796 1.1676540624446703 0.6139342965567781 6 14 20 1.7686070052063279 42 35 163 37 81 37 121 63 83 32 43 41 82 40 80 44 86 25 39 35 3 29 4 22
6428 -0.08974958694785308 1.2707700155419992 0.6699078404936369 96 85 77 1.446557936345391 81 41 84 55 160 29 82 33 80 29 158 36 78 31 196 29 159 27 103 25 120 34 76 26 61 21 199 26 156 31 117 24 157 27 181 31 77 23 43 36 46 55 37 23 39 28 36 25 155 23 40 23 194 28 116 23 75 17 153 24 115 19 154 21 88 24 38 23 35 25 74 20 34 25 123 51 114 23
6429 -0.033091254170289144 0.9121617780377841 0.4851246827777857 7 10 14 2.337452185989815 187 7 161 9 201 6
6430 -0.07474691941202938 0.8998103222549756 0.5137837264207051 230 228 222 1.405495500332556 187 34 201 36 200 58 78 93 238 50 278 44 237 51 276 40 199 71 197 62 396 41 355 35 394 33 275 55 243 37 352 29 353 36 317 35 316 48 315 31 314 31
7305 -0.23799011356351296 0.8877582423728019 0.5592470085498019 5 7 10 2.145150959194569 42 71 43 68 118 92 81 59 121 56 83 63 45 50 82 48 78 91 8 65 2 52 4 60 1 53
6433 -0.09949937717399883 1.2455422074016047 0.6759471158312741 34 57 90 1.7474693289098546 122 96 161 81 81 66 121 65 200 69 160 62 201 48 198 55 279 59 254 60 239 55 82 38 82 77 80 69 118 62 158 65 78 77 196 56 277 66 238 61 159 52 120 76 8 52 76 62
6442 -0.22064133104294556 0.9647043723171281 0.6808956315549107 115 108 84 1.617965725340925 46 71 201 156 8 64
9759 -0.09404718029322798 1.3970297319534364 0.6715041906081415 36 68 122 0.8528471614958981 346 102 389 107 348 102 388 96
6446 -0.2547934524984275 0.9102147737928468 0.565665139374098 30 24 26 1.7722654171261618 42 129 161 159 81 147 45 82 41 45 8 118 2 96 1 70
6447 -0.12518287561075794 0.8915286781174324 0.5915563890361633 236 218 228 1.6869319742373 42 187 81 159
6448 -0.08475662166854832 0.8980999582226123 0.48578994628304495 0 0 0 2.715097225104108 161 180 163 41
6453 -0.29436416212562505 1.1584980633115969 0.48596547536308077 8 13 19 1.3389855413758658 166 3 244 8 86 2
6820 -0.10536202584263514 0.8975284477682797 0.48746825797219706 188 160 148 1.5507320323009002 321 175 359 205 360 190 400 155 276 144 355 129 393 141 353 155 391 152 233 127 390 142 391 146 350 154 232 122 192 127 273 105 318 160 315 122
8151 -0.07082837914730614 0.9203322904998114 0.6047952082647172 180 166 153 1.3112357177980059 237 58 278 60 276 41 317 50 316 37
6455 -0.21100146073669152 0.9334441895730827 0.6029712295138612 44 37 28 1.1454754494041697 42 12 83 8 43 14 86 9 39 17
6456 -0.2169927597140621 1.189016528252472 0.6188511663168683 8 10 15 1.8379599806497358 42 7 122 18 81 18 160 21 121 21 82 17 80 12 118 24 78 15 103 23 120 17 76 18 61 30 43 15 37 12 39 15
7343 -0.24025585730075913 1.3751546968805548 0.689816677058634 54 63 78 1.1546722202692077 80 82 118 84 78 107 277 96 159 80 103 85 120 93 76 85 37 97 39 80 40 106
6462 -0.2925565713320791 1.1512119853608747 0.5672736049725223 0 0 0 1.4393036994052317 208 19 284 54
6463 -0.11028720346527364 1.284359039229627 0.6369248709612436 11 14 18 0.21528235482594937 83 20 118 29
6464 -0.29999701952963376 1.0961222544987257 0.5245055375913247 6 13 22 1.5410082934124751 204 17 325 21 84 23 45 18 86 16 125 13
6467 -0.09395588666730688 0.8824300189658136 0.5175494374903676 8 12 17 2.0093025184111424 124 29 125 31 84 28
7922 -0.1548965027631673 0.9719864131339986 0.5319234850868128 252 253 251 0.8495335611214095 398 1 397 1 395 0 320 23
6475 -0.07538582044578145 0.9111751629109723 0.47085522076318104 0 0 0 0.9832470778484932 46 65 187 74
9982 0.11488905966711056 1.4546222473675958 0.6475507383461266 5 14 34 1.586180137660258 132 16 129 86
6479 0.02263367437253101 1.0764694847304117 0.5133578202333101 0 0 0 2.8357220712305864 123 43 124 50 162 46
6481 -0.16727791331828457 0.9599315102356835 0.6794372336177208 228 240 252 1.9147202998779826 46 41 123 44 83 44 77 71 2 44 8 37 75 68 115 48 38 72 35 72 116 50
7206 -0.17186378602367028 0.9717058185226402 0.6497962738963995 211 215 241 1.3493151633275833 43 142 124 150 3 116
6485 -0.15983181848535322 0.8856247850171072 0.5624441012969392 206 198 197 0.6840724009227774 124 93 84 87 45 138 86 114 41 136
6852 -0.10657053406038274 1.4410006098137669 0.6250304945515438 33 50 89 0.22225344100800318 321 54 198 118
6486 -0.222636104542967 1.2365958431571658 0.6287884131090299 4 11 18 1.8288529190763416 187 108 203 105 84 94 45 97 2 88 163 67
7361 0.08589293305362368 1.309344614098117 0.3734661075589297 90 114 159 1.847854823396817 123 186 122 181 322 188 240 173 162 169 158 166 122 182 241 167 282 173 161 168 279 167 281 147 281 148 277 146 159 145 361 147 43 168 163 194 200 172
6487 -0.25613341974356724 0.9118838120640947 0.5201167377885066 9 12 16 2.261872704473133 46 165 81 49 83 142 2 97 8 117
7204 -0.2307069795030756 1.0698227149246409 0.7101001879982536 0 0 0 0.6562177119548039 160 150 203 149 125 140
6488 -0.03193896937966074 1.025398005210851 0.6120351805662996 73 59 60 1.996451151077112 46 117 125 109 164 94 83 77 86 134 84 113
6494 -0.2052556253228342 0.9244506289531915 0.4542716989856191 25 26 25 2.042469183904441 124 113 324 142 364 107
7369 -0.03716847999538281 1.271707347501985 0.4510761843020163 0 0 0 0.783199496173216 83 1 122 1 161 3
8402 -0.497225080178944 1.5764687845518182 0.46027702158944395 0 0 0 2.7848892475363374 237 35 238 25
7826 -0.08630123275811168 1.402517659731054 0.7203323474123966 4 8 4 2.133332697284016 281 28 320 17 239 23 241 20 358 28 400 28 46 33 398 29
6501 -0.07948670431874294 1.3239357212030296 0.6798843425875112 43 42 49 2.072722637754219 123 138 45 141 83 131 86 49 2 118
6804 -0.08709252030908568 1.394333575597205 0.7202638823148199 7 10 15 1.8287284443280876 265 35 321 32 359 40 360 29 254 34 239 44 361 36
6506 -0.23597260566180164 1.4137653236457874 -0.030043961720327358 0 0 0 1.0744040544154951 123 5 187 9
6511 -0.03100731281705538 1.3298912580157367 0.5600533715487958 0 0 0 1.721549829190011 46 4 84 8 123 2 162 3 8 4
7399 -0.26176185033894495 1.0700211725772228 0.6820615164013116 8 12 17 1.0079333356360791 43 145 80 145 78 144
6518 -0.03866166106225403 1.1477227146211715 0.5897916873916924 36 26 19 1.012802816387531 45 28 82 61
6519 -0.3109362787581254 1.1136370243943456 0.7836175265004868 0 0 0 1.7646186435739815 84 31 324 14
6521 -0.06154651747437254 1.3797964928407196 0.6561993599461922 0 0 0 1.5341307828807365 46 18 187 110
6888 -0.03112240609699605 0.9204924790703307 0.526270453038158 7 11 15 2.150350566296813 121 60 163 75 82 50 122 44 80 37 39 54 45 49
6523 -0.14709834315285605 0.9543111159293449 0.6816470909280731 158 142 129 1.5857648627039265 84 38 124 43 45 40 83 43
6536 0.0010089692808431527 1.0910081904163258 0.5931861469075284 74 92 129 0.011476944944138924 84 83 83 56
6538 -0.16906023847970736 0.9370470649311283 0.7030801579124641 163 148 139 1.5629295610760903 81 116 123 100 196 142
6546 -0.1380963951567127 0.898171292682926 0.6240727425489444 0 0 0 0.4289923503117775 243 128 244 141
6547 -0.19430301319185167 0.893991679788948 0.4934767877824363 32 41 48 1.0072045772426816 84 161 45 163 46 185
6550 -0.15851118590601884 1.383031911137054 0.6954011616297122 20 24 29 1.5987925542141064 81 157 41 76 42 151 44 74 8 112
6552 -0.09447822552871026 1.2983780175325725 0.7023819299428518 60 49 43 1.3245290233181157 122 89 203 127 240 122 284 133 282 135 187 136 161 99 321 109 46 95 45 127 81 125 84 120 200 104 265 99 359 109 160 89 198 92 279 98 254 88 358 100 43 90 82 87 80 80 118 82 158 80 78 87 196 92 277 94 238 91 159 78 278 99 237 84 103 81 356 96 398 109 357 88 318 81 120 97 76 82 276 85 319 91 61 78 199 94 397 101 399 109 156 87 117 74 197 88 157 71 236 82 86 108 181 85 77 72 41 107 317 77 235 81 275 81 37 85 39 77 3 77 2 91 354 81 36 88 155 66 4 76 40 88 194 74 116 66 361 107 234 81 315 69 316 79 323 155 75 51 274 70 153 60 115 54 38 67 314 62
6761 -0.03962424288688332 1.427688908870686 0.6077985489828712 2 6 9 1.3126973479283797 163 25 360 6 400 8 358 7
6553 -0.15459501518625882 0.8938286425818468 0.6368657087972437 84 75 68 2.000540330688926 123 140 84 141 208 124 45 156 86 132 41 137 322 174 124 126 125 125
6556 -0.2641323035457769 1.223175193500661 0.6013998967835517 52 55 52 0.7561198247948355 45 106 41 102 2 112 8 133 1 82 5 66
6558 -0.2064580548466766 0.819657181208747 0.836507613201468 140 138 140 0.9495677299810839 203 160 45 160
9902 -0.1625152646496952 0.8787659105507765 0.5543665030923154 197 195 181 1.7843555771953055 355 13 353 10 352 6 392 7 391 9 388 8 354 7 350 12 390 11
6559 -0.18425478613092613 0.9488049220488974 0.6688202546488691 203 198 207 2.6149625610698273 204 148 45 191
6566 -0.1918205555471706 1.2715370947970364 0.6551269241853986 26 39 58 1.1540815922212673 81 5 200 7
7377 -0.1862436778756744 0.8807338676192391 0.5044073116640723 7 10 14 2.1463734479586005 200 18 238 11 277 12 278 16 120 19 160 17 39 31 265 150
6568 -0.1868676531859601 1.356975998981384 0.7110420101727003 0 0 0 2.2581782085575113 122 11 203 15 83 13 123 10
6713 -0.12367287254159771 0.8997362306154748 0.6183102626456892 0 0 0 1.3175214838387292 46 152 203 156
6573 0.014445623583944226 1.264433362799273 0.4261057994947431 0 0 0 0.7101822313099501 81 24 162 26 121 20
6578 -0.13298711653138853 0.8821647570130974 0.5853224860868373 179 180 182 1.8384581907082496 161 31 121 36 200 40 160 41 254 37 239 31 82 55 43 69 42 77 4 59
6580 -0.08124533567929951 0.8989843864532481 0.6097677461057507 245 248 253 1.8282706226516623 161 46 121 43 200 56 201 52 160 50 198 46 254 45 239 47 80 51 158 58 196 48 117 67 4 56 277 45 81 56 42 57 45 52
6582 -0.04813583374617609 1.3821400216899382 0.6914626533078642 8 10 15 1.5052594238889343 46 83 121 50 103 31 61 37
6584 0.07329969627828845 1.3041766033468778 0.34405042117581325 98 116 143 0.39191777422967944 42 65 243 48
6586 -0.13804673042329674 0.8914160367417832 0.4761958074238252 9 12 16 2.2968617445908874 42 95 81 83 83 76 43 105 82 120 160 119 158 135 120 131 118 152
7691 -0.14848518483044293 0.9902809275216744 0.54438793529176 100 91 83 1.2533149545829565 43 0 103 0 121 0 163 0 80 0 82 0 78 0 120 0 76 0 61 0 156 0 117 1
6587 -0.022910465885734824 0.9391880425848314 0.5796088772420743 145 142 135 1.8886100752884023 161 133 121 88 200 95 201 108 360 124 359 168 160 99 279 133 358 170 80 98 237 120 356 127 319 117 197 111 272 76 193 94 111 79 189 85 113 74 228 74 71 77
6588 0.07592355951472313 1.16367946657457 0.39906252583095453 0 0 0 2.0283994607301303 81 89 322 2
6669 -0.14241793541339426 0.891852553558259 0.5053785247543222 0 0 0 1.4191942292035704 162 31 166 28 126 45 163 29 164 31
6590 -0.12004626403073458 1.049447249903697 0.7238930855166515 76 62 54 1.0846911003309065 42 109 121 104 160 106 198 110 158 129 359 150 78 116 159 96
6594 -0.12512183420052053 0.8839853412107457 0.6031224398211985 233 226 222 1.1831448793902724 42 126 81 111 83 119 43 140 82 105 120 110
6596 0.03497911377127394 1.2925007560019321 0.386654548135225 34 38 55 0.7852451400599024 161 117 121 121 200 114 265 120 160 110 198 111 279 120 254 114 358 105 239 113 82 102 80 106 158 102 118 104 78 110 196 104 277 111 159 108 238 106 278 107 103 102 237 106 120 119 76 106 319 103 61 103 199 108 156 105 197 90 117 85 157 92 236 100 77 97 317 96 40 90
6599 -0.21576613799723776 1.2111007360422528 0.5885383860656018 20 29 35 0.0982858808687766 161 152 121 134
7252 -0.07481118639937881 0.8988056897233043 0.49076534262189664 5 7 10 1.7565316028401217 239 64 279 91 160 78 198 58 200 75 78 101 80 92 158 76 238 114 265 92 159 69 118 87 103 86 76 87 120 79 61 83 77 73 3 101 4 98 199 113
6600 -0.1089191418471283 0.8907343509636243 0.6028876016303716 237 220 223 1.7783594572162342 121 136 82 144 80 166 78 152
7982 -0.1398775670248773 1.3706057410460664 0.7114684707583814 65 69 85 0.5285727066471301 103 158 359 154 357 111 319 123 199 159
6749 -0.09711996651203356 0.8808875144002587 0.620213925068608 253 253 253 1.9696922880380323 81 112 241 110 279 77 265 110
6605 0.09561075349860008 1.314345370143953 0.3480055662421313 0 0 0 1.089446663197093 45 188 122 190
6607 -0.18750702229962027 0.8880367429158628 0.5290595540113828 45 42 60 1.6073657441439921 81 179 121 168 43 81 82 36
7260 0.06965508195576939 1.2550868582637704 0.36259030202744774 96 111 140 0.9209805522955367 160 3 118 3 159 3 158 3 103 3 82 3 156 3
6608 -0.26121997276858305 0.9172199448055496 0.5573649188263609 42 37 35 2.159649362281968 161 193 81 134 121 169 42 130 241 155 8 69 4 90 199 34 157 78
8730 -0.05224746137165836 1.3567146225012265 0.705884812663388 49 88 158 1.240778291063739 61 23 319 78 36 24
6615 -0.09843211455118514 1.2936061736797668 0.6729374850932248 0 0 0 2.050249306352966 45 101 84 92 46 94 123 114 2 90
7332 -0.223744807914136 0.9843645721804662 0.7137530769064871 101 84 83 1.1102885288700792 198 42 254 33 279 38 237 16 199 15 156 15
7989 -0.022017181345282754 1.0140249545252968 0.5771230403854946 98 63 51 1.1868686769704022 358 169 357 149 61 123 156 121 157 104 236 106 395 119 275 99 274 84 88 85 38 101
6616 -0.005268325711023052 1.0309649675432304 0.5886148782210029 9 9 14 2.2843742303658328 81 72 163 81 122 84 121 111 265 85 239 92 359 103 318 87 241 105 158 145
6617 -0.13775648169895865 1.0723894368113323 0.718263151427721 34 29 23 2.115049068693105 161 151 122 189 162 160 204 126 265 133
7342 -0.08071016276373964 1.1963616285869347 0.7314429322695317 0 0 0 0.14407598187971277 118 76 254 40
6622 -0.28795823750122884 0.9864728367453445 0.48345689055154434 0 0 0 0.7425395695969296 123 3 203 5 162 4
6624 -0.2028262242944829 1.3116755320024118 0.5911725737714401 0 0 0 2.2672658369306817 121 6 122 5
8235 -0.04954022580838863 1.0092529413114577 0.4301875626443474 35 36 38 1.9606653411948607 80 27 397 62 238 32
6628 0.08528698651800021 1.2119066056755883 0.3632298106154759 98 115 141 0.2225359198637625 161 25 399 2
6773 -0.007902874307104764 1.0744996839699024 0.6043563595429722 99 78 66 2.0195214997818067 163 44 187 36 122 52 198 43 238 40 158 49
6633 -0.17406546044117258 0.8907582667236006 0.5739692887382234 170 161 167 1.7582195291781073 121 42 161 45 76 43 37 47
7294 -0.24118489191019174 0.9403977878548423 0.6072961775471596 41 33 34 1.1615165902482831 196 145 238 148 254 95 118 95 359 131
6634 -0.07567231868420222 1.3458052068161126 0.6750496176506074 66 108 186 2.0520659647014665 121 69 200 61 265 44 161 66 360 49 160 63 279 52 254 41 239 51 82 71 320 37 318 46 321 40 277 36
6781 0.0633367818021237 1.1677665040220695 0.3466646264232734 120 151 188 1.629851018594537 121 165 200 154 265 141 279 152 254 149 358 163 239 142 80 154 321 177 238 147 159 152 319 115 197 163
6639 -0.013299679858038184 1.0231153012780094 0.49091506116912936 9 13 11 2.820410185250397 322 88 200 96
6640 -0.21213108515414922 1.3756539217886325 0.693290319207671 7 9 12 1.0299056585640984 123 109 360 99 86 93 41 109 167 106
6641 0.032383577292647875 1.2802703036140848 0.3862507373544577 31 31 33 0.654051250513465 122 114 161 89 163 119 241 124 200 107 265 119 160 85 198 90 279 121 43 102 239 105 158 96 196 95 277 110 238 108 281 106 278 117 237 95 159 76 103 79 320 110 318 103 319 102 199 81 156 74
7238 -0.2563637013165139 1.3979125203069935 0.6371549658845898 0 0 0 1.1048362078710952 82 118 161 124
6644 0.09778538966931234 1.1722834738416703 0.33395734610766903 106 126 157 0.9492618266766755 200 164 265 153 279 153 118 169 103 146 399 129
6649 -0.009426780369284956 1.4116848948212235 0.6361078251675671 4 1 3 1.9582031842484495 121 7 198 6 254 7 200 8
7246 -0.14530314672223638 1.370719608219618 0.7193542195046072 87 101 126 1.3073568161406404 80 131 400 135 118 133 158 99 78 138 159 115 103 130 399 138 76 137 120 123 61 135 77 119 116 91 75 107
6650 -0.08583989000423924 1.0078804233946457 0.9884464113505735 7 9 12 1.8643533414481719 161 21 200 23
6652 -0.03147714102136697 1.2367172139190181 0.5028844351382358 8 10 9 2.8449992666222776 321 36 1 28
6654 -0.02593016614808284 1.32834659773232 0.5557677303113161 0 0 0 0.6535955723706274 45 13 203 10
6660 -0.18433889425899205 1.3654393072859252 0.6794527258413942 5 8 8 1.4032802227446628 45 5 46 7 43 11 41 6
10117 -0.18471364314656757 1.3523633681314733 0.3274668586759182 150 189 250 0.5290567858221277 58 74 56 46 110 41 55 31 54 49 17 49 14 39
6666 -0.03846501698573854 0.9161798813718088 0.5218085842314787 0 0 0 0.9246973938949319 125 25 164 21 81 43
6675 -0.005917221332992788 1.50013441064077 0.4843673966731162 2 3 3 0.7360782398634744 122 6 83 52
7554 -0.11480361535709399 1.2383042604163268 0.6784459808217227 15 21 48 1.2672202069708633 238 41 360 46 159 41 103 60 319 43
6677 -0.2900055788806676 0.9909736412678181 0.5885151820094379 6 9 12 0.9798817805944298 83 54 198 21
6679 -0.21949242555331808 0.9134459291273656 0.45491799514210735 7 10 14 0.5112929232505161 244 29 254 14
9160 -0.009450082966897222 1.1243826791591796 0.5422980244435891 6 10 11 2.0748366963422877 319 15 394 99 359 23 196 26
9518 -0.07949988693360874 1.4219931153574619 0.6281816579211847 9 12 16 2.3734491891478684 157 72 40 107 74 52
6687 -0.2898069631264803 1.0293456709440763 0.5269643937440066 0 0 0 1.3222255446128974 42 135 45 65 81 128
6694 0.012536463398752364 1.0570632585273556 0.4910493559494781 0 0 0 0.4261828200310057 46 115 241 4
8017 -0.038678477872086156 1.124973489272133 0.6182888875262104 65 54 54 1.870806447549012 279 26 358 38 318 32 319 21
6698 -0.31012191909717735 1.139894989550763 0.611850221422226 10 13 17 1.774773355238733 46 191 200 179 83 134
6701 -0.26098608813968405 1.0646080949029182 0.6916510413535025 21 17 16 0.6392619571284712 162 167 244 138 83 146
6705 -0.17897266524194752 0.9061479147782759 0.4595580246272162 101 99 92 1.7561834845318103 46 186 122 161 83 160 254 128 239 109 358 189
6706 -0.09996404010888951 0.8959687343616503 0.6275449176188965 173 159 160 1.9988401367978743 81 145 161 158 163 188 83 164
6707 -0.16772097712429795 0.9466968234675693 0.6926844569958954 206 200 213 1.8843234022230417 122 138 83 165 118 96
7586 -0.015131378002070756 1.488583733554608 0.47449512022842116 1 1 2 2.7646220356420286 158 7 159 7 156 7
6708 -0.1614013653923223 0.8833060661215212 0.5058175159301104 28 38 42 1.9762772888569748 123 178 241 38 162 197 83 166
6715 -0.053389473100530035 0.9068535699704205 0.5385678912002806 109 117 116 1.255817097509979 42 125 81 114 323 111 322 100 363 111 321 93 83 138 200 90 265 93 359 89 360 85 198 80 279 92 254 90 358 69 400 79 281 83 320 66 362 103 361 79 399 77 318 75 319 77 275 1 4 111
6718 -0.007268577423891865 1.0665682398894887 0.6110583732024298 110 85 73 2.064536599216334 123 41 83 45 78 46 118 43 157 19 40 33
8105 0.017240069685994994 1.4172320523077382 0.36917281346957237 0 0 0 1.071004007116706 159 20 198 34
6719 -0.15117892518683523 0.8196893424340297 1.12991445317425 7 10 14 1.1865717216381366 162 7 201 0
6720 -0.2956304368119388 0.9714095392601622 0.5652619715110204 6 9 12 1.6301719968913937 198 7 254 6 239 5 83 7
6724 -0.2047881749230645 0.9004098256274088 0.5690293326516663 225 211 211 1.3962004084578794 200 10 254 9 239 10 161 11 198 17
6731 -0.11611260467551134 0.8903599822817547 0.6083515524858613 253 253 253 1.5435708737170075 83 9 121 29 200 36 265 32 160 35 81 10 239 30 82 27 120 37 165 10 39 32 207 11 125 15 167 14 87 21
6740 -0.08155430357809264 1.3360553842376242 0.6479092791894303 40 45 60 2.1381170655811172 320 27 161 52 199 53 61 71 275 62 36 65 315 60 237 33
6746 -0.12574093527037414 0.914247089932434 0.4405798962574467 0 0 0 2.616988084363661 240 77 282 65 243 79 283 70 239 39
6747 -0.06308641647483731 1.4192842127136978 0.6452197837444311 7 10 14 0.9384974869428578 161 94 201 96 159 90
6753 -0.21833529724609654 0.8891976063377589 0.5420695681762226 46 54 61 0.16564394491290715 163 187 201 167
6755 0.08225093406521179 1.3169969575541833 0.36850544574611505 91 116 149 2.129745514120519 161 188 42 175 201 162 163 195 241 166 321 169 243 159 265 159 360 176 198 160 160 154 43 170 43 171 80 137 78 134 159 136 320 149 83 179 319 131 76 133 359 198 319 149 46 198 279 160
7570 -0.10835312917884916 0.8981645818788392 0.48411654305922275 132 117 115 1.640911330222255 158 118 160 92 159 101 120 118 156 95
6756 -0.11713908083674816 1.356169675482523 0.6978551535030232 7 12 25 1.383569732258009 241 18 161 17 46 12 81 13 121 22 201 14 42 13
6757 -0.06962818978777402 1.3693196311121045 0.6988653852144502 17 29 52 1.3490598538646952 42 23 83 21 121 25 282 19 363 23 161 26 43 26 82 25 81 23
6758 -0.08256543032945035 1.329438240305791 0.6929210721874901 10 18 31 2.2349627472469553 282 98 323 126 322 75 363 95 241 52 362 79
8081 -0.06497203569999727 1.4036690610872933 0.6967296575364225 18 27 42 1.0249743345545714 78 109 118 118 120 124
6767 -0.09350561682755812 1.2943177980688205 0.6727211173497967 117 99 95 1.291758254966561 359 28 279 21 160 33 358 16 400 24 356 14 398 19 399 26 318 18 319 13
6778 -0.029510116962626138 1.1736098117270932 0.5101679108255079 29 37 48 1.4967681861408242 200 31 201 39 265 61
6779 -0.06028160456944273 1.3662284459411094 0.7004312278114649 55 88 166 0.44135918646965283 201 97 265 127 200 82 359 118 279 95 358 102 400 111
6784 -0.06243972381417719 0.9044108090801709 0.5507595074904604 16 25 33 1.759330372889695 161 39 201 30 329 63 328 74 327 43 325 64 339 28 365 37 366 21 322 23 363 22 241 27 200 39 360 23 160 40 239 25 118 51 158 43 78 85 196 43 277 29 238 30 159 38 278 32 237 40 103 50 362 25 356 26 398 30 357 23 120 56 76 69 276 38 364 19 61 68 199 39 397 32 156 46 117 45 197 46 157 48 236 42 77 56 181 55 395 27 37 76 36 85 155 46 40 76 116 43 367 33 368 49 323 27 75 48 370 37 386 47 373 39 369 51 115 43 38 69 320 21 318 26 285 27 319 22 317 24 88 122 35 55 114 52 282 31
6785 -0.029630538175878456 0.9470016131659639 0.5904703164368742 10 6 10 1.5639257615473077 241 67 122 60 46 67 161 48 42 53 81 57 84 79 121 45 200 54 83 72 201 54 265 49 160 52 198 50 43 51 82 43 80 40 158 48 78 44 238 44 278 46 359 51 120 42 76 35 8 103 39 43 3 56 4 62 40 39 240 65
7443 -0.01068709934891401 0.9722333127067729 0.5437200727220277 68 59 55 1.2561988984264836 196 146 199 132 156 133 181 128 155 73
6789 -0.16559918680220323 0.9701867352389885 0.6889113515436682 144 136 135 1.9422377892031235 201 86 161 79 163 86 187 88 265 88 78 142 77 122 35 85 75 96 72 96
6790 -0.022960679908076674 1.03183453979766 0.5950560638069917 87 72 63 1.3561237210134947 161 181 200 153 265 143 363 132 324 150 323 149 283 143 321 117 241 154 322 134 359 161 360 153 160 148 198 173 279 171 254 153 358 173 239 140 400 128 78 156 196 157 159 146 277 140 281 127 278 141 237 143 103 139 320 122 362 101 361 112 356 151 399 125 398 147 357 130 76 152 318 142 276 136 199 136 397 132 156 141 236 125 355 116 317 119 235 113 275 110 37 124 3 121 194 115 115 94 88 99 316 106 315 106 74 106
6794 -0.12949952304275214 1.2668270187792545 0.6003367848715242 26 28 42 0.748295200412147 282 1 359 7
6801 0.0018520426407622832 1.045193884553633 0.551014648102735 93 80 73 0.8956333505312998 160 102 400 30 279 36
8038 -0.13395680483983946 0.8990492512898708 0.4763710300929536 225 207 197 1.7726636326675287 358 176 318 131 319 140
6810 -0.19551246472100287 0.8844776343326258 0.49451400589870115 9 11 16 1.8986610421981318 198 11 239 9 279 10 158 11 118 17 320 100
6819 -0.146705790451809 0.9015064173190445 0.4718760384831062 187 151 125 1.4462154241183245 359 204 360 162 358 167 239 154 201 159 356 135 355 125
7634 -0.1712710830692608 0.8817058371901857 0.6168732529750035 194 178 178 0.9490751716250265 80 49 118 53 78 68 103 63
6821 0.08114532012323192 1.3115897753532146 0.3738960435491663 72 84 112 1.0894217008521192 45 181 161 186 121 173 200 173 265 160 360 177 160 173 43 169 198 177 158 155 80 157 78 165 42 174 318 144
8437 -0.04890625347376922 0.9132534809868739 0.5037808433957129 6 9 12 1.788173926322824 201 72 198 98 160 93 279 54 254 83 239 94 118 88 80 95 82 121 196 69 78 102 277 59 238 77 159 84 278 54 237 54 120 80 76 72 276 58 156 77 117 76 61 113 157 63 103 111 181 64 116 62 318 36 319 40 320 58 316 47 317 37 315 33 37 42
7642 -0.08068658829736797 1.3570368007864115 0.6661299661262872 0 0 0 0.15446644563632908 196 144 358 151
7996 -0.20610703226932625 0.8941422229767197 0.5027373342678083 38 42 48 2.554841332484626 356 180 117 124
6834 -0.16124731972063652 0.9488251524242369 0.44366820507905547 231 209 184 0.4021264277205878 122 101 359 178
6845 -0.1352019727345042 1.3487053771035793 0.7118907308750126 9 21 56 1.66036479851492 321 21 359 24 360 22 400 23 361 27 320 18 399 27 318 10
6846 -0.061008387515224693 0.9040650666322011 0.5490097905411179 27 33 38 0.989316468449327 321 25 359 29 265 33 198 38 254 36 279 33 358 24 400 21 361 21 399 23
9487 -0.048481421880404295 0.9378966680383487 0.5827805228856828 0 0 0 1.958815953411957 37 90 76 57
6853 -0.03282048830238481 0.936934418926559 0.5808456622715857 175 159 153 2.0890743921942145 360 51 400 48 118 57 196 51 238 37 159 58 278 45 237 53 103 64 357 44 76 71 276 42 199 57 156 61 395 52 234 66 275 50 318 39
6856 -0.022659836397548937 0.9597066947103631 0.5836718649260939 95 82 62 1.4887912065510016 321 111 359 93 360 74 358 74 400 88 281 86 320 70 362 117 361 99 398 87 399 85 319 59 318 60
6860 -0.14918992998636116 1.347725982913781 0.7337445188373416 0 0 0 1.791152404997412 321 143 359 117
7213 -0.05396200955350125 1.2137794817465644 0.5417377576801737 3 2 5 2.288809944101188 43 2 81 1
6864 -0.025329904958228046 0.9380073325629873 0.5738166349261029 158 135 119 1.27784716646869 359 169 360 147 279 144 198 151 361 128 254 148 400 143 357 148 356 140 318 141 276 126 199 131 197 113 236 117 238 149 395 122 396 112 155 93 393 103 391 129 232 112 153 86 313 101 316 95 152 108 271 100 314 80 112 83 193 113
8474 -0.14643740161229496 0.8939936846783532 0.6149452988264464 155 138 133 1.0565391710710212 103 91 76 91 37 93
6871 -0.25669814003319913 0.9989115615421075 0.6509657511088085 84 72 64 2.2745990909874334 81 7 121 18 200 33 161 20 160 26 239 27 78 47 398 77 399 42 120 33
7221 -0.0812079656530009 1.2090080668831598 0.5031563013272545 2 6 4 1.1891383542628833 80 26 120 16 3 30
8100 -0.027213677750784367 1.1777643917522465 0.60607374981251 0 0 0 2.1676885002610042 121 1 163 2 254 4
8054 -0.11578126904154247 1.3542631680062356 0.6910427260057824 6 17 41 1.6803141602709466 43 8 238 14 120 11 82 13 8 12 4 11
6882 -0.21176472220594386 1.195646279416975 0.6234137861957256 6 9 12 2.150528845645565 161 16 203 4 198 30 196 35 200 24 8 7
6885 -0.26087675235832203 1.0040574906085113 0.649759014520801 109 98 86 0.7714420085368748 187 12 201 18 400 50 361 25
6897 -0.06278951139510422 1.3957907661314217 0.6987871168095829 22 35 56 1.9334892158437753 200 134 160 122 198 119 254 87 239 123
7491 0.010248547432605825 1.411296788956659 0.7810135691564296 20 25 35 1.0064492884356602 359 104 238 140 278 151
10048 -0.17277158728162792 1.3047316486245566 0.2931881358780509 0 0 0 3.2108754041479113 145 47 225 21
6899 -0.20270720118872693 0.9540275651651411 0.6739237032850668 170 156 153 1.6850893986628654 200 146 160 133 198 124 279 140 254 134 158 127 277 159 120 117
6901 0.028409986510998766 1.2930515935672042 0.3945851176745756 29 36 48 1.3753400617578568 200 113 160 138 198 113 239 112 80 134 118 106 158 101 78 128 159 109 103 80 120 120 76 108 61 112 199 93 156 86 117 73 77 98 40 104 163 174
6903 -0.1874820666034324 0.8953194197586708 0.48850089864262497 40 42 55 1.3045612642059432 254 173 121 151 158 149 276 141 357 143 181 140 117 147 319 127
8004 -0.13525744729739353 1.3333610599329366 0.7261686424794493 8 17 39 2.0240398459510964 278 12 281 18 316 14
6910 -0.11225938193632469 0.8977062345329787 0.6170157781369446 0 0 0 0.480438875564259 42 162 81 158
9551 -0.25536733839784476 1.0012568325716669 0.6020792081232291 165 164 156 1.8474874283290283 3 23 8 6 4 9
6911 0.05870046403336352 1.3072306959878202 0.3725830205776823 152 192 253 1.2718663092112696 321 182 160 182 198 184 358 213 196 140 159 159 319 148 197 167 193 134
8012 -0.09272270448923091 1.3430458750261167 0.6927035935165375 0 0 0 3.0048623108632073 320 29 322 76
6918 -0.026269597320304393 1.4416894026384284 0.586632631122719 6 7 9 2.0344878022683965 81 12 161 8 163 10 82 9 80 9
6920 -0.19221815782655227 0.8904641014950309 0.4751747336759324 0 0 0 0.48340073596824695 161 10 201 11
6923 -0.06130049671223818 1.2225036495642643 0.4230497309480089 53 75 117 1.7803267015197402 160 25 359 21 198 15 279 18 254 23 43 46 358 14 400 17 158 20 196 13 277 15 238 12 278 10 159 16 237 11 356 9 357 8 318 22 319 12
6925 0.08391187474248572 1.2234436158527264 0.3446193035570333 96 114 150 1.1641371185912788 200 20 201 20 198 19 238 21 117 51 315 1
6926 -0.29069373705718643 1.0019079066549135 0.5467563893381298 236 230 222 1.2435848919330694 42 20 81 29 118 38 8 16 4 18
6927 -0.17446606222450858 1.004627210260898 0.7104551381431705 115 103 79 1.5142584234612713 200 32 201 32 198 29 80 32 118 26 158 32 78 27 159 30 103 33 120 31 76 29 39 24 4 25
6933 -0.18883055451079683 1.3924310875930717 0.7249283348495267 6 9 12 2.072820615399954 160 57 200 49 279 40 254 42 265 36
6940 -0.09405341169680564 0.9061835198925141 0.6169319858433006 191 182 177 1.4633184224216038 76 92 37 104 118 115 40 89 120 132 198 141
6944 0.058538408980353895 1.1670249458252548 0.36233626810167247 114 139 179 1.6468411599411592 160 149 198 154 254 150 43 166 80 155
6952 0.030779758853686924 1.0580767211490236 0.5560001888560978 6 13 17 1.5470294901885666 161 14 198 13 277 34
6954 0.07826571798354012 1.2455865516662423 0.31166605578146617 97 111 143 1.5496365980419533 198 41 78 24
8932 -0.1488136300955653 1.3343064845909427 0.73626117325783 5 9 12 1.635575288658762 356 16 319 8 396 16 394 22
6955 -0.016477638485250964 0.9497718358729859 0.5680829632108115 8 9 10 1.044010428137193 122 122 163 113 240 108 162 122 243 138 203 123 187 112 161 75 121 89 201 82 279 68 322 102 321 66 360 72 359 92 254 85 43 123 358 72 400 86 82 99 80 87 78 90 196 75 277 82 238 67 281 75 159 67 320 57 362 105 361 81 398 85 156 62 39 89 282 103 318 65
6956 0.014868887082425024 1.277065006932309 0.39277561213711676 10 16 19 1.4549295830675701 161 29 160 20 198 25 279 23 200 25 201 26 265 19 254 22 239 20 122 25 158 24 196 20 159 17 278 23 103 16 318 16 76 12 61 17 199 20 156 22 117 19 197 20 157 20 181 27 77 15 36 16 155 18 116 15 115 14 38 19 75 16
9247 -0.1909287988266105 1.0805380271979046 0.7014274707426182 0 0 0 0.7288535832392873 46 180 121 159
6958 0.06319365547916636 1.315403396383314 0.3851020773625489 82 96 113 1.8423982263347984 282 170 265 167 279 166 122 175 321 174 161 171 200 161 359 181 360 187 43 151 358 184 158 152 78 137 196 134 159 139 320 157 318 151 156 127 281 154 155 96 157 111
6959 0.06307423551271563 1.3127516867797786 0.3822860556383529 113 142 182 1.5066019645672093 121 178 265 166 279 180 322 186 254 164 400 165 80 164 78 161 320 154 277 162 400 167 238 165 318 157 61 151 356 170 317 121 76 143 265 165 354 133 316 119
6974 -0.23808513057922234 0.8991400979159335 0.5647332310448948 179 169 159 1.3382723294699523 360 61 359 59 400 61 159 85 320 53 398 65 399 56 397 79 395 96
6980 -0.01447405538471303 1.0862905771205194 0.6159932193289139 46 36 30 1.7421073896229773 160 58 198 53 254 48 265 65 279 60 360 113 43 74 82 62 121 81 80 42 118 44 158 50 196 45 238 43 161 80 159 35 278 50 237 41 103 29 120 44 199 38 39 38 3 52 40 27
6982 -0.02457251657295138 0.9584630732236623 0.5836982631544624 96 81 66 1.4761822175079509 254 54 265 82 196 47 238 54 278 61 159 68 103 44 276 61 61 50 199 49 156 49 117 47 157 55 236 57 181 53 77 52 235 58 275 58 37 56 36 49 155 44 194 54 116 45 234 68 233 53 75 50 192 47 274 47 153 46 115 31 154 54 38 64 313 40 315 50 35 42 272 51 314 48 74 49 112 54 150 42 312 38 34 47 70 43 193 49 230 63 24 39 114 46 33 47 31 47 309 49 23 39 26 37 113 55 191 45 228 42 30 33 32 51
6983 -0.007851909196102012 1.0486201909839268 0.5951908609898767 119 92 79 2.207726401926548 122 66 198 56 83 69 84 58 45 60 46 62 43 58 239 58 82 63 118 74 158 56 163 84 78 60 196 46 159 50 103 55 120 71 76 51 61 53 162 62 156 53 41 54 8 59 37 52 80 56 39 53 3 15 82 14 36 53 4 48 40 50 160 70
6988 -0.022499540148823587 0.942873837977341 0.5671490002367774 157 156 154 1.9020884127843434 359 101 254 94 358 86 400 84 277 86 78 113 118 94 278 80 237 72 361 100 398 84 120 86 276 70 76 93 61 87 199 84 156 81 117 101 395 75 36 74 115 51 316 63 317 62 318 85 239 87 37 92
6994 -0.35011852869198146 1.2724380518533551 0.05249373531775248 189 175 166 3.1224680230845046 121 143 254 167
6996 -0.030624533911609006 1.081541711086789 0.4714874345491721 33 31 31 1.5607854517022803 254 170 276 139
6997 -0.14767280246055242 0.9057798399400645 0.45625238495092535 21 21 20 1.776441217446549 160 66 198 74 322 123 321 119 238 76 361 95 363 82 39 101
6999 -0.1640993591619318 1.374329103733303 0.7204892949197031 59 65 73 1.7606016277988585 160 160 198 143 203 102 248 105 286 100 287 109 246 101 339 116 285 107 245 104 205 87 165 92 284 109 244 103 208 88 164 103 125 118 166 119 204 90 126 81 243 108 163 139 122 149 241 132 187 140 161 128 42 145 81 137 200 140 201 137 265 130 360 120 279 130 254 105 43 157 239 124 82 139 158 150 281 102 320 90 356 117 357 110 318 109 319 124 84 127 355 112 44 75 167 82 85 84 277 114 127 72 207 84 358 119 87 67 47 85 1 79 7 84 5 77 209 97 317 105 282 109
7001 -0.2134220165950061 0.9120485359487669 0.4697767668737931 6 8 11 1.8374268045713085 160 163 359 96 360 84 122 159 241 116 254 142 265 111 398 76 318 96
7726 -0.03416836887666524 0.9258967896451445 0.5638871897200292 190 165 155 1.178628669527134 321 166 320 148 362 145
7002 -0.014969253985284533 1.0314108438920184 0.5234224219493664 82 73 58 1.2819168846092295 254 19 279 22 42 62
7211 -0.1649541441135218 0.9542475763296987 0.6641656994583033 101 90 88 2.0949050289313504 43 94 124 130 121 76 82 97 61 95 3 88 36 96
